# .PCD v0.7 - Point Cloud Data file format
VERSION 0.7
FIELDS x y z
SIZE 4 4 4
TYPE F F F
COUNT 1 1 1
WIDTH 1331
HEIGHT 1
VIEWPOINT 0 0 0 1 0 0 0
POINTS 1331
DATA ascii
0.76800185 -0.014904372 -0.015252098
0.89322883 -0.064832196 -0.011807774
0.95838499 0.1507713 -0.0085390816
0.98289806 -0.0049022939 -0.0098049119
0.80773151 -0.044461172 -0.015304117
0.96813691 0.074095443 -0.0088730073
0.76894438 -0.063705482 -0.013624214
0.97818655 -0.059088811 -0.0089972708
0.80284518 -0.016968014 -0.014520388
0.97292024 -0.11091316 -0.010732626
0.96512902 0.01984648 -0.0095074847
0.69820672 0.0097850747 -0.016772425
0.89378166 0.035715852 -0.01137855
0.70832938 0.034809101 -0.015667943
0.88330966 0.1001828 -0.0022321297
0.79339856 -0.03985377 -0.013457142
0.90776265 0.035173878 -0.012565544
0.96854717 -0.095541187 -0.010073108
0.71823525 -0.02033239 -0.015970737
0.67788148 0.1080531 -0.016486512
0.7095595 -0.13660634 -0.017541312
0.70276028 0.10804609 -0.014743398
0.93842191 -0.039690133 -0.010014715
0.7141999 -0.03610516 -0.016229443
0.89299965 0.0052308948 -0.011659289
0.76223993 -0.074642107 -0.015156986
0.6878286 0.15019228 -0.016468255
0.77779931 -0.009237498 -0.01503748
0.71389747 -0.030184571 -0.016117604
0.96912354 -0.058745027 -0.0090054367
0.70282686 0.13790856 -0.015429722
0.77321154 0.014615091 -0.014960294
0.75809187 0.050031848 -0.013890807
0.83395922 -0.078472637 -0.014994294
0.70392174 -0.054371689 -0.017154811
0.92374766 -0.11950836 -0.011580101
0.73291814 0.15792532 -0.014124294
0.68269855 0.15030377 -0.016182497
0.75364941 0.044469148 -0.015017217
0.81786394 -0.13199152 -0.014612691
0.93804818 -0.034782428 -0.006496835
0.7127791 -0.040290151 -0.016624346
0.9830296 0.095884606 -0.0085360166
0.7634452 -0.12474197 -0.016129527
0.75318217 0.13814272 -0.013489374
0.85820752 0.01513176 -0.012065783
0.69329041 0.075451069 -0.015777603
0.84343803 -0.14901006 -0.013089009
0.83886683 0.19039536 -0.011520043
0.80212981 0.050763506 -0.010337274
0.68888795 0.11572881 -0.016166162
0.72791386 -0.13199736 -0.017494418
0.70242828 0.16576368 -0.016065158
0.90295625 0.005229413 -0.011779824
0.71823633 0.1199479 -0.01533049
0.89828449 0.17528462 -0.01036272
0.90313709 -0.12485001 -0.011814876
0.93341452 0.14019755 -0.0087390086
0.88834882 0.12518112 -0.010952417
0.90817648 -0.099944584 -0.011667402
0.78885585 -0.035337854 -0.014686817
0.6939196 0.02973048 -0.016957704
0.70343977 0.04510051 -0.016632078
0.83308417 0.080165423 -0.0022297329
0.71877867 -0.045354594 -0.0166212
0.78309727 -0.11049764 -0.015282854
0.74663758 0.16580163 -0.014876706
0.95365024 -0.10463648 -0.010853269
0.75284207 -0.14191481 -0.016572386
0.73334032 -0.065161176 -0.015961718
0.89342695 -0.1700774 -0.012418784
0.93273348 0.099835649 -0.0088166781
0.88844812 0.16483779 -0.010677594
0.75290149 -0.033684853 -0.015659247
0.87856656 -0.12489334 -0.01184195
0.87336075 0.19983304 -0.010694589
0.79276991 -0.04027785 -0.015061053
0.75380832 -0.049908545 -0.015285647
0.75425661 0.045124494 -0.013814569
0.88781726 -0.11478038 -0.011745927
0.73349941 0.019151572 -0.015352122
0.91839981 0.12132046 -0.0090066763
0.70770168 0.030166192 -0.015808176
0.71282285 0.088052437 -0.014686347
0.69279277 0.12485176 -0.015082484
0.9590525 -0.0102765 -0.0096963933
0.74818414 -0.084524862 -0.015511768
0.69780326 0.097948633 -0.01538412
0.72361737 -0.015101204 -0.016129447
0.86782312 -0.14984961 -0.012496083
0.86349559 0.16517085 -0.011185479
0.95325327 -0.024785936 -0.010237197
0.87282693 0.10127755 -0.004556675
0.95293218 -0.12453604 -0.010687267
0.7129997 -0.044899669 -0.016662167
0.75867599 0.095314302 -0.013735798
0.94406193 0.038633347 0.00049316889
0.93276221 0.084150672 -0.0034195345
0.74429142 -0.11547024 -0.016086396
0.96282852 -0.070428595 -0.010423113
0.7834633 -0.099761218 -0.013841356
0.78809273 0.14932993 -0.012721384
0.71381783 -0.15687427 -0.017049525
0.70760489 0.16011748 -0.015418326
0.7683028 0.014474921 -0.015084901
0.89292228 0.049113959 -0.011711941
0.79699302 0.010161724 -0.010691453
0.96362007 -0.10020483 -0.010421942
0.90832871 -0.17413417 -0.012726188
0.88864833 0.035068821 -0.011681408
0.90321904 0.15008654 -0.010502351
0.82271326 -0.080438189 -0.01288411
0.78780556 0.055722747 -0.013371303
0.90333927 0.0010464003 -0.011515596
0.72322977 -0.049707543 -0.016403157
0.69283801 0.13801117 -0.016553907
0.84874338 -0.084063165 -0.014606546
0.69789475 0.11303326 -0.014857141
0.74812132 0.025432572 -0.015170216
0.67295092 0.12795004 -0.016044609
0.91847861 -0.11955554 -0.011517178
0.91277909 0.19532377 -0.010164006
0.6982097 0.13442498 -0.015587141
0.92824876 -0.079719044 -0.011260184
0.91411006 0.086527035 1.863404e-05
0.93316376 -0.16496219 -0.011839449
0.92833948 0.14058326 -0.0098738819
0.77784222 0.0097241504 -0.014832142
0.75339597 0.1401079 -0.01473322
0.80128121 0.067309082 -0.014269819
0.81770819 -0.13449727 -0.013641108
0.81372494 0.17997485 -0.012519347
0.70789778 -0.091969423 -0.016846061
0.87327027 0.025260938 -0.012154508
0.93708467 0.18453249 -0.0097308634
0.94330746 -0.074669868 -0.010723019
0.89860696 0.0094666881 -0.011777454
0.80347496 0.095395029 -0.013228408
0.92295289 -0.099746935 -0.011497751
0.80741918 0.044355731 -0.0054218941
0.88250118 -0.12953012 -0.011972045
0.69348645 0.10034175 -0.01545212
0.93292141 -0.10944446 -0.011491812
0.67775965 0.079922475 -0.015858246
0.96331608 0.08952941 -0.0099674501
0.81307948 0.11946224 -0.012679392
0.94889772 -0.095045902 -0.01042738
0.75367451 0.079991646 -0.013739783
0.68345177 0.10311282 -0.016012698
0.72318321 -0.025045481 -0.01560856
0.93331671 0.19470951 -0.0095313163
0.93827701 -0.12920754 -0.010978398
0.71344066 0.035164651 -0.015332663
0.69781297 0.14299256 -0.016117128
0.73291951 -0.091718085 -0.016173897
0.85857129 -0.16053617 -0.013503255
0.85329384 0.16497275 -0.011271066
0.7131806 0.045293003 -0.015859917
0.74265313 -0.1560012 -0.017483588
0.75778466 -0.064998664 -0.015298424
0.71849638 0.0097978627 -0.015957754
0.8024981 -0.055085842 -0.015146041
0.84825307 -0.1590015 -0.01288726
0.76373816 0.035325389 -0.014846114
0.84275156 0.16499536 -0.011348336
0.77261126 -0.069832318 -0.015231743
0.96332747 -0.074907057 -0.010367558
0.72358316 -0.10044233 -0.016883843
0.86836946 -0.1554945 -0.012497745
0.95846099 -0.064925633 -0.010237515
0.8621794 0.16994855 -0.01099568
0.99214607 -0.11899351 -0.011348118
0.77308494 0.14557759 -0.01287837
0.89804983 -0.099818543 -0.012138895
0.84808201 0.13058472 -0.011846555
0.81262517 -0.13945524 -0.012997638
0.80885279 0.17482083 -0.011959867
0.78885466 -0.096137561 -0.015171134
0.98874903 -0.004382404 -0.008797504
0.84997022 0.030118095 -0.012546147
0.97902232 0.040919386 -0.0086438013
0.69281828 0.087988846 -0.015582023
0.97932678 -0.035046257 -0.0090643931
0.99438328 0.055567253 -0.0098768119
0.68760997 0.13363597 -0.016453687
0.9972896 -0.11975126 -0.011140298
0.77306485 -0.10086399 -0.014913375
0.71831411 0.015020899 -0.015802106
0.95386052 -0.15439759 -0.010276607
0.94828027 0.15956098 -0.010165642
0.99875444 -0.038844675 -0.0087570762
0.7427485 -0.15194389 -0.017455047
0.75537586 0.020311994 -0.013759308
0.76028466 0.18679696 -0.015023237
0.76271111 -0.1049838 -0.015589229
0.7331844 -0.020350529 -0.015540672
0.70313883 0.15309554 -0.015274098
0.69239575 0.078072898 -0.015692603
0.72856385 0.060816273 -0.015382411
0.88381815 -0.17018598 -0.013343714
0.91471666 0.15988949 -0.0090235686
0.87855512 0.18985175 -0.010998293
0.74274588 -0.14699897 -0.017452704
0.82838267 -0.035322744 -0.0056936895
0.76810998 -0.11019745 -0.015189208
0.73365897 -0.079506323 -0.016510151
0.6878289 0.08802969 -0.015305012
0.9337554 -0.18407723 -0.011425923
0.92823517 0.11994997 -0.010102353
0.78844756 -0.090205349 -0.013573288
0.76277876 0.050237849 -0.014988843
0.74281496 -0.1419743 -0.017407725
0.97839832 -0.025061071 -0.010227238
0.72309828 -0.034759864 -0.015975902
0.70821381 0.046271782 -0.016197644
0.87774038 0.049195651 -0.012239082
0.72823435 -0.034399658 -0.016142052
0.83938527 -0.18342476 -0.01364011
0.83356333 0.14006327 -0.011839863
0.81297094 -0.12203629 -0.014457226
0.78406852 -0.14968008 -0.015808402
0.77862 0.18188635 -0.014534958
0.71265167 -0.090895362 -0.017156007
0.70282787 0.13302611 -0.015528063
0.75845933 0.046074983 -0.01390496
0.92350852 0.11563051 -0.010260202
0.70410073 0.13011812 -0.015532344
0.7026819 -0.10061748 -0.017016923
0.69827002 0.17059751 -0.015449827
0.75847065 0.15488921 -0.014466872
0.85024923 -0.04823276 -0.0029976079
0.76681793 0.049764477 -0.01482901
0.71805263 -0.085585244 -0.016790519
0.74331707 -0.12006284 -0.016268164
0.90622717 0.041658305 -0.01215083
0.72281569 -0.030564427 -0.015772309
0.93816435 0.14960198 -0.010092707
0.99814439 0.12553115 -0.0082787899
0.77335274 -0.084565423 -0.013790865
0.70292735 0.14306916 -0.01527486
0.94393623 0.11540665 -0.0099228658
0.71810251 0.15520997 -0.014875994
0.72283381 -0.13702708 -0.017496634
0.91348594 0.12034319 -0.010574149
0.78245282 -0.06018075 -0.015671259
0.9730987 -0.13490364 -0.010935937
0.72194707 0.074230529 -0.015573809
0.77352971 -0.0046638348 -0.013744111
0.8992793 0.14040962 -0.0085338028
0.76346588 0.14542446 -0.013481995
0.77414948 -0.048871007 -0.0156711
0.74399751 -0.099652603 -0.015945276
0.74339563 -0.084995359 -0.015847251
0.73411191 -0.11070737 -0.016893161
0.92309242 -0.059367392 -0.011291287
0.89311773 0.024443699 -0.011682331
0.718431 0.063797794 -0.015420863
0.71290642 -0.11697439 -0.017461477
0.76841229 0.054520771 -0.01469785
0.96826887 -0.029793827 -0.01012777
0.95382971 0.045539938 -0.00064025354
0.7027353 0.11299199 -0.014658488
0.95890272 -0.03021971 -0.010255337
0.93842924 -0.05483681 -0.010731224
0.72379994 0.039588924 -0.015476977
0.85332084 -0.14012122 -0.01208785
0.8488254 0.19560173 -0.011256233
0.76848745 0.040370192 -0.014732461
0.74292111 0.010364939 -0.014956964
0.71729922 -0.080747455 -0.016539838
0.70829207 0.16592604 -0.016387871
0.71412605 -0.16059877 -0.017116932
0.78805906 0.12495431 -0.013078814
0.94794554 -0.054941177 -0.010720436
0.81852251 0.12556176 -0.012392643
0.77355427 0.13519323 -0.01305516
0.68323052 0.13313651 -0.016443949
0.77867121 -0.044047292 -0.01474556
0.78292471 -0.0098633291 -0.015164094
0.83816195 0.1052931 -0.012505544
0.78401679 0.11962207 -0.01292088
0.75362116 0.12462252 -0.013583953
0.8240332 -0.044894695 -0.013062054
0.96327186 -0.049920145 -0.010017043
0.76856464 0.13977717 -0.013342207
0.9879145 0.19614248 -0.0068621919
0.79410219 -0.14051063 -0.016268784
0.85307807 0.095339514 -0.0025729616
0.99891293 0.090271495 -0.0081077479
0.81208909 -0.064720131 -0.014634754
0.90823799 -0.049537763 -0.0022142963
0.7332015 0.065037243 -0.015469014
0.78341883 0.12481159 -0.012891348
0.84312958 -0.064477444 -0.01332104
0.72791708 -0.029196026 -0.0157144
0.7381826 -0.024466503 -0.015515234
0.76340914 -0.044500109 -0.015288558
0.77781415 0.080544747 -0.013436228
0.76839197 -0.03941004 -0.014960923
0.88869137 -0.061015815 -0.010330705
0.81541669 -0.17023446 -0.014127386
0.80793518 0.16488259 -0.012016263
0.83158839 -0.11386328 -0.014809282
0.87335414 -0.19617844 -0.013241652
0.86889821 0.12041709 -0.011519502
0.96845138 -0.088976078 -0.0089560375
0.84290332 -0.061981987 -0.014808025
0.74913549 0.15970761 -0.013551593
0.7331062 -0.11549876 -0.017041801
0.77927983 -0.039418414 -0.01501558
0.91831046 -0.049455266 -0.0068758177
0.76802254 0.029506316 -0.014938097
0.82791436 -0.064214632 -0.013302853
0.77906036 -0.034036137 -0.015541092
0.76324183 0.13564518 -0.013525901
0.77363181 1.132096e-05 -0.014920322
0.74789703 0.16294625 -0.014131473
0.89306527 -0.11508175 -0.011965307
0.88813591 0.19015373 -0.01062069
0.66805202 0.14299762 -0.015176085
0.77280152 0.068010822 -0.01513258
0.75773573 0.015318432 -0.015127609
0.87694943 -0.1705344 -0.01436323
0.86762458 -0.064574026 -0.01249524
0.87865996 0.10734744 -0.0099019734
0.80059236 0.02060928 -0.0039069904
0.93376523 0.11414402 -0.010493084
0.86821932 0.045307472 -0.01158908
0.91866583 -0.059956171 -0.011237506
0.93400145 -0.11470524 -0.011233121
0.81864172 -0.1240264 -0.013141485
0.81472427 0.19067633 -0.012326782
0.69799578 0.088006638 -0.015067374
0.75345528 0.14392957 -0.013527576
0.92811555 0.13495834 -0.0089527667
0.78850174 -0.085076712 -0.013795077
0.69761306 0.015192071 -0.016498048
0.83851355 -0.09001343 -0.01292657
0.74818081 -0.090525322 -0.015686074
0.78327906 -0.049690455 -0.015102174
0.72388494 -0.064848259 -0.015964158
0.96787459 0.089471743 -0.010071975
0.77801549 -0.014447728 -0.014981756
0.93366706 0.10551737 -0.010054083
0.73878068 0.092944175 -0.014025141
0.69366521 -0.01448947 -0.017691292
0.89816773 -0.060617503 -0.010609594
0.97899985 0.010090407 -0.009930592
0.85343271 -0.1146379 -0.012277201
0.73878121 0.025144868 -0.015212107
0.77826363 -0.089403734 -0.014400865
0.84805954 -0.074458338 -0.012949704
0.72812039 -0.11054131 -0.017200924
0.80412722 0.071396798 -0.01445606
0.97311819 0.075054981 -0.0084697064
0.92308396 0.094214492 -0.0064934366
0.79332167 -0.10954849 -0.014050087
0.78785795 0.19488151 -0.013444038
0.80849224 0.1798377 -0.012348594
0.78862607 -0.079911374 -0.013902977
0.91332757 0.0948826 -0.0024391268
0.79431444 0.069895044 -0.014449582
0.75324965 0.15338187 -0.01349651
0.9532842 -0.078971028 -0.010681836
0.72786069 -0.14201295 -0.017626811
0.90736991 0.029694809 -0.011646994
0.93864459 0.14542067 -0.0087208729
0.927854 0.12968877 -0.0089178961
0.78341371 -0.02599686 -0.01525303
0.75222856 0.15819962 -0.013363769
0.71393371 -0.0053653019 -0.01615048
0.72851223 -0.075328626 -0.016568933
0.77758312 -0.0043030772 -0.014861277
0.94795668 -0.14426281 -0.010756534
0.94416445 0.18028972 -0.0095029622
0.78766787 -0.054791529 -0.01552945
0.77272439 0.034817427 -0.014645206
0.95844787 -0.014836746 -0.010063799
0.94842041 -0.18490472 -0.011521211
0.82832682 -0.099882983 -0.012831342
0.74742013 0.15474643 -0.013903979
0.94349819 0.13996059 -0.010435035
0.76831204 0.069702432 -0.014510388
0.94846892 -0.069649883 -0.010732539
0.75294101 0.16801095 -0.013973325
0.73783284 -0.088784896 -0.015816694
0.97350764 -0.069509499 -0.010184027
0.77228957 0.05063181 -0.014455693
0.797122 -0.010520116 -0.014590631
0.95418674 0.00026257016 -0.00088573596
0.76389515 0.11981452 -0.013497462
0.93841898 0.17533104 -0.0097290836
0.78921062 -0.050611109 -0.015273187
0.90675563 0.15541659 -0.0086949226
0.77768272 0.040208716 -0.014446204
0.7137177 0.073309198 -0.015590566
0.9133814 0.14947252 -0.0088150986
0.80281711 -0.081521578 -0.015066383
0.67770529 0.088142306 -0.015226084
0.71863121 -0.039629847 -0.016153412
0.76812315 0.16946507 -0.013483816
0.78008366 0.090398997 -0.014554406
0.75881767 0.15533617 -0.013489945
0.93330771 -0.1201902 -0.011832578
0.91836196 0.1354122 -0.010353281
0.78762895 -0.015223255 -0.014953739
0.9533388 0.085037231 -0.01004351
0.98900414 -0.099711828 -0.010157886
0.80327779 -0.095080398 -0.013448991
0.86817163 -0.11957551 -0.012075818
0.86351985 0.19524464 -0.010693813
0.79358852 -0.070016243 -0.015059848
0.78294271 -0.0044810399 -0.014733682
0.98825067 0.13512601 -0.0081083067
0.82387066 -0.089110032 -0.01456198
0.79378867 -0.049702242 -0.013302323
0.87351912 0.11529073 -0.011410923
0.75847059 0.16470151 -0.013239279
0.9127028 0.10203359 -0.010377813
0.90361601 0.010245155 -0.01158554
0.71391952 -0.10133357 -0.017131846
0.8177883 -0.049616698 -0.014632177
0.90299851 0.095308505 -0.00090111489
0.76847547 0.10029352 -0.013207406
0.76784396 0.1599109 -0.013456116
0.6885578 -0.077081241 -0.017504541
0.82292968 0.14023623 -0.011758992
0.68742687 0.07415086 -0.016138019
0.74281573 -0.065204032 -0.015572278
0.95397538 -0.17902292 -0.010381969
0.94827068 0.1453034 -0.010159334
0.76304674 0.13990995 -0.013159201
0.75322336 0.040152777 -0.014723379
0.87817776 0.10033983 -0.0018318966
0.79868132 0.12519994 -0.012583968
0.98382336 -0.080054991 -0.0090437466
0.69760281 -0.095632464 -0.017027626
0.88859457 -0.054592468 -0.0025499929
0.82343197 0.094685331 -0.013059554
0.81858468 0.1550747 -0.011776984
0.79859149 -0.085428022 -0.01501626
0.92851019 -0.11002898 -0.011504005
0.7782073 0.13520454 -0.012965364
0.89876932 -0.17975774 -0.011785638
0.89303988 0.14513727 -0.010305338
0.79328883 -0.056123 -0.015556691
0.7592209 -0.040798858 -0.015277877
0.73342848 -0.059622161 -0.015878057
0.75781506 0.17505485 -0.013796873
0.92258823 -0.048447773 -0.0078670634
0.86690038 -0.18860681 -0.012924949
0.86314625 0.12499854 -0.011767264
0.78247738 -0.11909606 -0.013613879
0.77847689 0.14939035 -0.012935602
0.76907867 0.0460396 -0.013865102
0.76865184 0.12045357 -0.0132227
0.90274847 0.040216889 -0.011353573
0.78379411 -0.10493861 -0.015008491
0.95875627 0.078879327 -0.0087109664
0.91318417 -0.10443178 -0.011647088
0.96299285 0.12510957 -0.010182921
0.67769945 0.084643006 -0.015791124
0.79357922 -0.045490205 -0.014766048
0.9687041 0.13058396 -0.0082874587
0.87278861 -0.10022591 -0.012649078
0.71280783 0.10299207 -0.014467739
0.83334941 0.18511118 -0.011782557
0.83813906 -0.12999938 -0.013187191
0.79353571 -0.12066171 -0.01461469
0.99295682 -0.075295389 -0.010054397
0.77848947 0.055648033 -0.013575488
0.67950237 0.058290236 -0.016247122
0.90315342 0.025036197 -0.01168264
0.71210176 0.068776287 -0.015925035
0.89377558 -0.089975409 -0.012109852
0.87858254 -0.0089082252 -0.012345213
0.80377752 -0.0048372154 -0.0072265863
0.88333946 0.18025425 -0.01051687
0.8888399 -0.135322 -0.011849715
0.77835011 0.059158571 -0.014357774
0.8299244 -0.15987517 -0.012974532
0.82324404 0.15530267 -0.011826289
0.96503282 0.035859033 -0.0099786622
0.93301821 0.13099271 -0.0087279798
0.743451 0.0053103589 -0.014877698
0.78833264 -0.0050604478 -0.014479517
0.96789283 0.071119651 -0.0088634854
0.82816142 -0.070159212 -0.013142854
0.79227608 0.019877765 -0.01444741
0.79318768 -0.030595772 -0.01502454
0.79824966 -0.079415537 -0.013120904
0.78766322 -0.074996553 -0.014906983
0.70785981 0.087966725 -0.014913327
0.76816183 0.13514933 -0.013271441
0.67694807 -0.0035373145 -0.016271517
0.70335841 -0.034152318 -0.016530011
0.82799906 -0.13577017 -0.013724811
0.82334602 0.19139825 -0.01179128
0.95330095 -0.0049136188 -0.0018810567
0.73395592 -0.025098259 -0.015398688
0.92231315 -0.043565791 -0.0028102896
0.78397542 0.035275884 -0.013603438
0.75356603 0.020088702 -0.015201494
0.81582719 -0.084413245 -0.014916806
0.80343133 -0.059960421 -0.015042846
0.78914696 0.03478368 -0.013213396
0.70854056 -0.010205229 -0.01629466
0.78341287 0.040082686 -0.013432436
0.71362019 0.048738163 -0.016035311
0.74798083 -0.1008447 -0.015454345
0.79936898 -0.055252828 -0.015030635
0.7279498 0.13296472 -0.013916016
0.93360513 0.089204453 -0.0081315339
0.72955155 -0.024308594 -0.015631825
0.76577467 0.18200997 -0.014296807
0.76815468 -0.13595957 -0.015690209
0.75715005 -0.025728909 -0.014120555
0.9281472 -0.11965267 -0.011510256
0.79332119 -0.020672375 -0.01476669
0.78355449 0.01512681 -0.014542756
0.76874143 0.060706209 -0.013674983
0.7033273 -0.040197685 -0.016914615
0.9083426 0.01544864 -0.011300483
0.91294056 -0.06508065 -0.011428604
0.74268389 0.12091405 -0.014881723
0.97299784 0.090396032 -0.0088202469
0.77737361 -0.084892377 -0.014810117
0.94278508 0.17995982 -0.0085513899
0.98860449 -0.019937275 -0.0097293463
0.98882395 -0.045050163 -0.0097843846
0.88129705 -0.17684852 -0.014713924
0.91319692 0.10529377 -0.008909395
0.70833474 -0.060145471 -0.016775345
0.96809125 0.17532639 -0.0077917795
0.79332334 -0.015565066 -0.014789242
0.92397487 -0.039996743 -0.0012670817
0.88397008 0.10324179 -0.0035982653
0.6926803 0.15336742 -0.015692536
0.79348922 -0.0098117171 -0.014686106
0.97323304 -0.0046865349 -0.010371431
0.98414469 -0.028809581 -0.0089409463
0.69285887 0.058013406 -0.015989324
0.9677738 0.063124157 -0.0091316681
0.79219431 -0.0054105171 -0.01464704
0.90906924 0.10990179 -0.010628927
0.73647761 0.17020853 -0.014832111
0.7433809 -0.040012632 -0.015611912
0.81365865 -0.13628326 -0.014932158
0.80306983 -0.066163331 -0.014875264
0.93128484 -0.17956214 -0.010973508
0.92800331 0.15528652 -0.010077496
0.74364793 -0.074524634 -0.015836639
0.71243078 0.12369598 -0.015068317
0.84525818 0.098596089 -0.0082002776
0.89931947 -0.18837141 -0.012120753
0.89306068 0.13537455 -0.010473987
0.79876977 -0.035486538 -0.015121652
0.84556842 -0.053506594 -0.0090064537
0.94356102 0.19944893 -0.0082305316
0.90805918 0.19545141 -0.0085886847
0.69978791 -0.061374526 -0.016974216
0.94288319 0.11028511 -0.010356152
0.81295288 -0.13052592 -0.014818298
0.77830303 0.18852887 -0.014702317
0.74815154 -0.054845259 -0.015431792
0.73292279 0.04056944 -0.015263225
0.73895663 -0.035640772 -0.015433135
0.89815545 0.12489212 -0.010610601
0.90330273 -0.074717201 -0.011501632
0.7191714 0.039685465 -0.015468278
0.74790353 0.104353 -0.013627527
0.92323506 -0.075012684 -0.011266275
0.76820683 0.17491628 -0.013284512
0.81842464 -0.13501173 -0.01450501
0.98847246 0.025306378 -0.0098587414
0.77781552 0.1644678 -0.013037173
0.99349809 0.070488155 -0.0085789077
0.68807358 0.078278996 -0.01545033
0.80325162 -0.089958631 -0.013337787
0.7735185 0.05566268 -0.014562953
0.98794979 0.020268237 -0.0087614227
0.77929193 -0.02385 -0.013744896
0.79824942 -0.020036109 -0.014524315
0.78808564 0.14014268 -0.012605871
0.78872097 0.0080025066 -0.014866549
0.78289306 0.16436301 -0.013063952
0.78858054 0.044050898 -0.014456294
0.87330866 -0.12493548 -0.012176428
0.78316224 0.079587989 -0.013438147
0.73834598 0.015327712 -0.015253129
0.80498445 -0.003160028 -0.0037582929
0.75871778 0.15016508 -0.013406899
0.95524263 0.049900752 -0.0047410396
0.81271499 -0.11508919 -0.012866858
0.80895388 0.18997595 -0.012790063
0.79922259 -0.1602027 -0.013858305
0.7931416 0.15475222 -0.012503532
0.75687003 0.083796345 -0.014262808
0.80845821 0.06013504 -0.0069719045
0.9772507 -0.064474806 -0.0091285203
0.88344896 -0.095525011 -0.012298886
0.87870979 0.1955938 -0.010531722
0.78279394 0.17477357 -0.012945952
0.77897072 -0.12553799 -0.015728841
0.77318138 -0.090829261 -0.013645821
0.99813372 -0.089333966 -0.0086491005
0.91884577 0.1300388 -0.01020059
0.73315424 -0.014139031 -0.01568291
0.74230379 0.17437252 -0.014151821
0.78739876 -0.029566158 -0.014890258
0.77322316 0.15028374 -0.013134062
0.91279489 0.18010753 -0.010055014
0.91800189 -0.14507948 -0.011285982
0.91876286 0.19143695 -0.0088084089
0.89305949 -0.17443262 -0.012174169
0.88861191 0.13019586 -0.010731255
0.81316578 -0.1103883 -0.012945765
0.85319161 0.00079814432 -0.01261709
0.96847463 -0.064759493 -0.010091736
0.86781657 -0.11513308 -0.012494989
0.80196816 0.025434894 -0.0047094915
0.76799375 0.075134702 -0.013625966
0.7875219 0.059588023 -0.014619764
0.79358292 -0.055126559 -0.013062401
0.82238388 -0.094547749 -0.014633579
0.83802462 -0.17982167 -0.013491796
0.83329648 0.13520646 -0.011851325
0.94339389 0.070249937 -0.001697755
0.78313959 0.13411374 -0.012454696
0.7626524 0.0099127786 -0.015388851
0.80267632 -0.1218219 -0.014657438
0.81345224 0.075759716 -0.01175777
0.83343863 0.10534295 -0.012571309
0.80461001 -0.045051787 -0.015122109
0.78843933 0.16953319 -0.013097662
0.81275892 -0.075627685 -0.014392518
0.70295954 0.0051794723 -0.016188463
0.907327 -0.056513965 -0.0098242927
0.74355763 0.030222984 -0.015318022
0.80760813 -0.065175302 -0.014621273
0.98185271 -0.17226823 -0.010368295
0.76047862 0.19010286 -0.014258718
0.76389354 -0.1099079 -0.015480099
0.70849895 -0.086497135 -0.017040448
0.71256238 0.030297022 -0.01550412
0.75316381 0.10041834 -0.013785012
0.82347268 -0.034399375 -0.0066751363
0.9884823 -0.13490793 -0.0099691218
0.97013175 -0.035252742 -0.0091910306
0.80090034 0.00034732264 -0.01099154
0.77315789 0.010935422 -0.014684054
0.98914027 -0.029236671 -0.008971761
0.78810602 0.069549426 -0.014626871
0.72305572 -0.089589797 -0.016436644
0.70787728 0.10301824 -0.014210084
0.72302163 -0.12191059 -0.017397888
0.79338056 -0.084269397 -0.013336767
0.86803412 -0.080129638 -0.013058309
0.78408104 0.10529912 -0.013037531
0.7672224 0.011073403 -0.013720492
0.8031624 -0.085660994 -0.015184344
0.78273946 -0.069580421 -0.01542548
0.68893307 0.015143794 -0.017384313
0.83270127 -0.15949288 -0.013479776
0.82850581 0.14542493 -0.011718669
0.99424404 -0.040167145 -0.0088526383
0.98821682 0.045094606 -0.0085993223
0.81320673 -0.09014412 -0.012926524
0.69774657 0.10291886 -0.01546972
0.80251116 0.0054894881 -0.0059577613
0.79897243 0.015723839 -0.0070161149
0.68371886 0.11829491 -0.01566992
0.69746757 -0.01071563 -0.016537568
0.88323486 0.12007723 -0.0112099
0.80314291 -0.020762295 -0.014587091
0.72400302 -0.040169206 -0.016159877
0.68284118 0.087993711 -0.015029133
0.96766973 -0.048715174 -0.008312827
0.71344274 0.025116971 -0.015477392
0.68949735 -0.0049169548 -0.016742157
0.89889908 -0.049963865 -0.0011385561
0.8028574 -0.0055600144 -0.010396504
0.96318412 -0.034615669 -0.010258017
0.76292765 0.11912972 -0.015320897
0.98388249 0.12561223 -0.0083146598
0.77366656 0.18054323 -0.013386576
0.79819179 0.035194665 -0.010394222
0.96835363 -0.040032517 -0.0099237394
0.94290817 0.084019274 -0.0088648666
0.71830362 0.030225137 -0.015500373
0.81354749 -0.10033373 -0.014686665
0.78341979 0.12886414 -0.012492297
0.96855903 0.095264614 -0.0086686779
0.91333777 0.17570524 -0.010501813
0.91856629 -0.13926117 -0.010957696
0.74838006 0.054721337 -0.015328286
0.99851835 0.0302538 -0.0087587992
0.93801284 -0.11966401 -0.011554073
0.73785579 0.12803423 -0.014063014
0.82287735 -0.13696268 -0.014486302
0.67916709 0.063073024 -0.016163915
0.81271261 -0.049774375 -0.015322749
0.80597192 -0.15488866 -0.013261252
0.80422968 0.16026525 -0.012162167
0.78771567 -0.05948877 -0.015232369
0.82881099 -0.079631299 -0.012805765
0.96374959 0.099965036 -0.010277217
0.73333549 0.025204219 -0.015490487
0.79341918 0.13978378 -0.012478968
0.93827152 -0.11049152 -0.011399535
0.88298017 -0.058773614 -0.0069130934
0.86357415 -7.5200092e-05 -0.012217022
0.88779956 0.10294931 -0.0039937906
0.97731024 -0.12535341 -0.010634418
0.76312613 -0.01983254 -0.014860464
0.6699329 0.11479863 -0.016622679
0.947914 0.13524508 -0.01059692
0.95324028 -0.16956411 -0.010721411
0.74269372 0.00012143252 -0.01518064
0.7630915 -0.01459052 -0.015053908
0.97800505 -0.064910926 -0.010289141
0.9684816 0.11514617 -0.010167821
0.78312558 0.070167787 -0.014512332
0.76226962 0.1499476 -0.01328803
0.88780153 0.10819665 -0.0085736793
0.86706322 0.10715761 -0.010335092
0.70735145 -0.029917462 -0.016523369
0.85305136 0.025670575 -0.012640417
0.95360458 0.17039926 -0.010083492
0.95813262 -0.15556663 -0.01036792
0.87461907 -0.18223333 -0.013024954
0.86844158 0.15058647 -0.010926402
0.75902528 0.055484574 -0.015080635
0.8629933 -0.099713989 -0.012743602
0.7378698 -0.12705715 -0.017445104
0.85754681 -0.14466664 -0.012203568
0.99838603 0.070040554 -0.0083231786
0.85327554 0.17117836 -0.011169204
0.81882977 -0.12914439 -0.013367935
0.81225127 0.19461438 -0.012376869
0.95739222 0.0049541686 -0.0022685241
0.76321304 0.039473526 -0.014748614
0.80810374 0.094979756 -0.01291122
0.73832721 -0.11518366 -0.016618839
0.95777035 -0.094305478 -0.010402432
0.92400086 -0.084626704 -0.011088713
0.74385297 -0.094916239 -0.015248947
0.96338797 -0.039888132 -0.010080273
0.97802538 -0.0045987922 -0.0099468911
0.94282478 0.079621509 -0.0079901544
0.88834786 -0.16954342 -0.012931516
0.80128217 0.047105633 -0.0097254179
0.88365531 0.15601183 -0.010426188
0.87815893 -0.12006791 -0.011856311
0.87311316 0.19525304 -0.010612841
0.90765095 0.18015261 -0.010225337
0.91287845 -0.15562083 -0.012155056
0.78263462 0.040543512 -0.014361653
0.68931913 -0.0099935718 -0.017020324
0.8080923 -0.10452067 -0.013276609
0.95277953 0.08020553 -0.0099194944
0.98382145 -0.090181991 -0.010104867
0.84360045 -0.13023594 -0.012862636
0.8380807 0.17078121 -0.011267232
0.9603222 0.031138364 -0.0047040097
0.79186237 0.037149761 -0.014339564
0.80403811 -0.099850163 -0.013528242
0.78253442 0.15964949 -0.012757004
0.89314628 0.10719203 -0.0097444775
0.74277574 0.14299078 -0.013485446
0.97257143 -0.080010384 -0.0099125244
0.72821754 0.18311225 -0.014464829
0.73281896 -0.1520206 -0.017035138
0.85387135 0.030775715 -0.012555026
0.81835067 0.075306013 -0.0063503515
0.73399609 0.034915406 -0.015255231
0.71304995 0.14787947 -0.013907189
0.94841343 -0.07992471 -0.01045895
0.93358451 -0.064934619 -0.010936773
0.83300555 0.095135286 -0.011775699
0.76822108 0.055617578 -0.013655403
0.96360886 -0.090038024 -0.010234535
0.84381855 -0.10482454 -0.012149302
0.80784094 -0.054343205 -0.013310971
0.82392967 0.10543723 -0.012689382
0.81856591 0.14537637 -0.011770668
0.77857459 0.00073688023 -0.014875816
0.77814907 -0.06961868 -0.015249996
0.90275371 0.034633089 -0.011270496
0.91772503 -0.064809807 -0.011544051
0.78731698 -0.12486306 -0.013533771
0.97871238 -0.059631269 -0.0099704619
0.96915245 0.11071102 -0.010154329
0.82302535 0.11487451 -0.012570512
0.81830913 0.13473758 -0.011964884
0.67376435 -0.015468693 -0.017577944
0.94788647 0.17556474 -0.0088003846
0.96354681 -0.080050938 -0.01051697
0.94362384 -0.18480626 -0.011797734
0.93887371 0.13572036 -0.010163651
0.93372148 -0.044797901 -0.010166331
0.88797146 0.10038733 -0.0028931319
0.98434585 0.11556928 -0.009828832
0.95836329 0.025190003 -0.0013274412
0.83830345 -0.099483475 -0.012940625
0.76908946 -0.12080219 -0.015321326
0.75828147 -0.030362023 -0.015255583
0.78357893 0.045153122 -0.013441967
0.94802719 0.17026816 -0.0087038279
0.89264286 0.12526292 -0.010617637
0.98574752 -0.15358989 -0.0089843608
0.75399655 0.11410239 -0.013292315
0.97888583 0.13883883 -0.0099190501
0.91327268 -0.090142734 -0.011310309
0.91928315 -0.051859483 -0.0094356202
0.69872361 0.083641477 -0.015095606
0.76322395 -0.024991086 -0.015181167
0.96871197 0.11956482 -0.010119592
0.95913607 0.19540641 -0.0076678251
0.8051343 -0.010100215 -0.0075454521
0.96907914 -0.18514965 -0.010808382
0.96351993 0.13010584 -0.0099938828
0.79784834 0.15503639 -0.012416759
0.93836921 0.10503349 -0.0088438634
0.80377716 -0.15987074 -0.013787299
0.70911831 0.064969249 -0.015770713
0.79857039 0.14036871 -0.012483417
0.90773076 -0.084362328 -0.011696049
0.88782907 0.13799152 -0.0088899387
0.93819004 0.12519631 -0.010327529
0.94322956 -0.17383587 -0.011609694
0.89318287 -0.12551662 -0.011685272
0.83840513 -0.04465808 -0.00612676
0.70356077 -0.0097889099 -0.016495401
0.83280969 -0.055812906 -0.014787433
0.68206954 0.058419596 -0.016387619
0.82814825 -0.059330553 -0.014544
0.788436 -0.071008503 -0.01349578
0.70790976 0.092981547 -0.014442902
0.97762829 -0.049519319 -0.010029824
0.90222216 0.04519048 -0.011211051
0.89371568 0.11043786 -0.010647235
0.8939184 -0.15913826 -0.011896116
0.98846871 0.10951141 -0.010154607
0.888367 0.15502585 -0.010508143
0.9597826 -0.18402828 -0.01052969
0.95318216 0.13996804 -0.0099088773
0.76842755 -0.029951274 -0.014922819
0.7984103 -0.004595255 -0.012259657
0.8034811 -0.034667242 -0.015146605
0.86805022 -0.053625323 -0.002690084
0.74838954 -0.030272165 -0.015707409
0.87864655 0.029752312 -0.012033544
0.98806155 0.074376889 -0.0099780085
0.87810618 0.16503347 -0.010622296
0.88336134 -0.14402173 -0.012063961
0.70353955 0.034045249 -0.016115451
0.90817821 0.090042606 -0.00013889196
0.71785766 -0.13203853 -0.017939379
0.77866566 0.13052823 -0.012829526
0.97403991 -0.085021093 -0.010363267
0.83791858 0.15066084 -0.011556751
0.8774159 -0.06122914 -0.010346729
0.79300982 -0.080481902 -0.015013091
0.8681941 -0.10953695 -0.012667634
0.98775768 -0.050178394 -0.010083743
0.72345108 -0.080181837 -0.016776694
0.91831928 0.15509002 -0.010059043
0.92332464 -0.15457429 -0.011367293
0.79777819 0.040004574 -0.011122758
0.77335757 -0.030100467 -0.015033468
0.93724889 -0.037847675 -0.0079304278
0.83386648 -0.073977388 -0.014756526
0.74899215 -0.11927652 -0.015423919
0.7779364 -0.10510604 -0.015577517
0.8535192 -0.059732325 -0.012405259
0.76424611 0.043879118 -0.013810639
0.90823913 -0.069799066 -0.011570252
0.94864941 -0.0011115271 -0.00011327012
0.92825449 -0.099546149 -0.011297077
0.93367362 -0.09012755 -0.010694574
0.98787385 0.090349801 -0.0099523757
0.88824588 0.17551921 -0.010318552
0.89323306 -0.13976331 -0.011587578
0.7530269 -0.094897784 -0.015574932
0.88858849 -0.18466459 -0.012201281
0.8833918 0.13063818 -0.010982394
0.81342381 0.13006164 -0.012161972
0.91167057 0.019776778 -0.011770011
0.7688511 0.13030274 -0.013179431
0.94773424 0.1603498 -0.0091634113
0.96351373 0.058722731 -0.0090397568
0.74900544 0.040050533 -0.015021611
0.98217416 0.10465295 -0.0097162835
0.96855074 -0.014969165 -0.010085345
0.79331774 -0.09558589 -0.014991712
0.75803483 -0.09038794 -0.015233308
0.79312956 0.065650091 -0.013331246
0.69339532 0.0653532 -0.015919868
0.68413013 0.036089014 -0.015801935
0.96785969 0.025346557 -0.01011392
0.9536953 0.06024855 -0.0063835229
0.99397683 -0.030189253 -0.008829711
0.8775869 0.019617312 -0.012038833
0.98420972 -0.013919103 -0.0091858907
0.97335356 -0.019827219 -0.010294052
0.958278 -0.12437723 -0.010832585
0.91801995 -0.10034391 -0.011365924
0.78837401 -0.00011501038 -0.014596718
0.89280337 0.01471258 -0.011610901
0.96351552 -0.064921595 -0.010309014
0.83364761 0.11506192 -0.012591205
0.73601848 0.17517516 -0.014518445
0.94746178 0.17371577 -0.0098949485
0.9544245 -0.12928234 -0.010247276
0.74328279 -0.044822291 -0.015773168
0.72376513 0.15397671 -0.014940244
0.8388862 -0.13950346 -0.012867297
0.83312768 0.17497505 -0.011271666
0.73147219 0.16988453 -0.014816821
0.73787075 -0.14695312 -0.017246576
0.98273891 -0.060774196 -0.010159804
0.80780363 -0.080523409 -0.01477574
0.68848819 0.040152945 -0.016203504
0.81312102 -0.080402866 -0.014705431
0.79784054 -0.0019915274 -0.014729332
0.98923159 0.065340623 -0.009782128
0.88311005 -0.16029234 -0.011976845
0.75540346 0.18638235 -0.014861313
0.87822545 0.17973267 -0.010585301
0.75819647 -0.13067576 -0.016008629
0.78413713 -0.073426947 -0.01542597
0.78864825 -0.14910525 -0.014504441
0.96792233 0.094596811 -0.010070223
0.88953501 0.10759042 -0.0099543454
0.7784937 -0.019540979 -0.015000992
0.76333213 0.08150395 -0.013698737
0.74776655 -0.12487537 -0.016396243
0.893677 0.18490544 -0.010323576
0.89913762 -0.13978413 -0.011942429
0.80275583 0.040718514 -0.0063222283
0.94756144 -0.029398397 -0.0086150141
0.77279246 0.065162793 -0.013740699
0.75339305 0.090033606 -0.014614401
0.94904649 -0.01004253 -0.00047943339
0.8987149 -0.11036371 -0.011347095
0.93318129 0.16007932 -0.00978899
0.93808407 -0.15505099 -0.011787257
0.86354995 0.10183309 -0.0051589576
0.79777235 -0.096218251 -0.015173529
0.78360492 0.066056311 -0.01348551
0.80343837 0.14967358 -0.011936395
0.8095898 -0.0053746696 -0.0032726335
0.82811499 -0.090095147 -0.01261823
0.83256602 -0.13951772 -0.013262275
0.75308537 -0.03630897 -0.013600094
0.82847089 0.1655135 -0.011720728
0.89341587 0.17021818 -0.010432199
0.89755678 -0.14457853 -0.011855663
0.828098 -0.11995331 -0.012776451
0.82417291 0.19535235 -0.011837138
0.75319642 0.10030896 -0.014852135
0.68354839 0.10008477 -0.015906546
0.75073785 0.18107994 -0.014987475
0.89822942 -0.095783815 -0.011963459
0.75277495 -0.15512317 -0.017181195
0.77424538 0.14098042 -0.012916723
0.8584277 -0.054914795 -0.0066230316
0.79900408 -0.029444952 -0.014929377
0.75273758 -0.065038085 -0.015836775
0.73796761 0.13012397 -0.015380443
0.96794564 0.0099201752 -0.010381958
0.97874069 0.125349 -0.0083747506
0.87349832 0.12512825 -0.011566902
0.73775673 0.082340114 -0.01389581
0.97812253 0.064919606 -0.0098843426
0.74841195 -0.094582424 -0.015816061
0.76865423 -0.089432746 -0.013896078
0.94908911 0.13001686 -0.010139983
0.78290248 -0.084491514 -0.015096194
0.787929 0.14361012 -0.012529154
0.82375491 -0.094493248 -0.012930254
0.78944582 0.059611075 -0.01355906
0.94182956 0.18796924 -0.0092482902
0.94768143 -0.13547261 -0.010418411
0.91366047 -0.050668269 -0.0059563797
0.83384067 -0.13435017 -0.013226673
0.84767628 -0.16570482 -0.013126603
0.95531392 -0.014255167 -0.0095726363
0.8431645 0.15015547 -0.011240465
0.69828373 -0.035288062 -0.016752163
0.99806142 0.020002985 -0.009551676
0.72888219 0.079166412 -0.015041293
0.93344408 -0.05453261 -0.010842515
0.7525999 0.15119009 -0.014641235
0.98850572 0.094605669 -0.008223203
0.76843679 -0.12594724 -0.015482942
0.83822912 -0.15011413 -0.013756096
0.83357078 0.16513489 -0.011608259
0.71658981 0.16104801 -0.015911946
0.72284609 -0.14204217 -0.017349351
0.96854258 0.10527566 -0.0099290414
0.82845342 0.1853226 -0.011672753
0.83334309 -0.11981828 -0.013203764
0.85311562 0.17948923 -0.011191193
0.85864198 -0.13452424 -0.012678473
0.73902428 0.031853266 -0.014080243
0.73839658 0.059996109 -0.014912789
0.7230618 0.16969635 -0.015252625
0.72802716 -0.14696072 -0.017209129
0.71784431 -0.1270307 -0.01787097
0.97370201 0.024983287 -0.010294132
0.90357578 0.12024516 -0.010614112
0.69706917 0.024112662 -0.016795209
0.9439739 0.19051859 -0.0081472481
0.77389097 -0.074198216 -0.013284575
0.75798154 0.16789111 -0.013250237
0.80333346 0.14027584 -0.012158374
0.88811344 -0.094308943 -0.012088629
0.94921643 0.041798513 0.00062592654
0.98831207 0.035495538 -0.0096937865
0.79763985 -0.11022711 -0.013826326
0.8978796 -0.12490549 -0.012002214
0.89348686 0.19002831 -0.010491355
0.83375609 -0.10977457 -0.012647878
0.88328135 0.10536911 -0.0068083196
0.91783088 0.16060869 -0.010304129
0.92275524 -0.15985171 -0.011487462
0.83285773 -0.11463252 -0.012986305
0.68759012 0.15464094 -0.015393285
0.96848768 0.0047197309 -0.010382756
0.93822682 -0.10455053 -0.011297693
0.97278666 -0.054650255 -0.0099826427
0.98274857 -0.085702017 -0.0099756122
0.83825505 0.17492029 -0.01117433
0.84326708 -0.13514531 -0.012860008
0.73827481 -0.01465256 -0.015241367
0.93333238 -0.10040567 -0.011316122
0.80328983 -0.039501023 -0.015025151
0.77872747 -0.12974839 -0.015772261
0.9987728 -0.094745904 -0.010422512
0.88875073 0.045691054 -0.011557097
0.75326025 -0.06050064 -0.015260284
0.78350598 -0.030392449 -0.014893554
0.93328792 0.095371746 -0.0087211533
0.83312827 0.12481484 -0.012333128
0.81757087 -0.064972803 -0.014725322
0.68900585 0.0051688827 -0.017142132
0.89124423 -0.19436148 -0.012533683
0.93366283 0.14523092 -0.0086792512
0.90281218 -0.09458968 -0.011810115
0.89816624 0.14528595 -0.010731209
0.88867956 0.11029383 -0.010641369
0.70836252 0.020132447 -0.016201848
0.98841017 -0.074479468 -0.010342679
0.86318403 0.02013956 -0.011846254
0.83836532 0.15506409 -0.011337473
0.94344896 -0.17983255 -0.011506598
0.9382534 0.13007645 -0.010412054
0.79282814 0.053005964 -0.014433078
0.82311964 -0.090364106 -0.012786524
0.89864755 0.095306523 -0.00076024816
0.83858037 -0.054467481 -0.01262321
0.91229361 0.03029523 -0.011912837
0.89769828 0.0048486269 -0.011894766
0.794146 0.10992978 -0.012746594
0.88769341 0.015551902 -0.011661964
0.89868319 0.1855092 -0.010399138
0.90293992 -0.13451371 -0.01184443
0.78873217 -0.10573123 -0.014829906
0.97817522 -0.00020944385 -0.0098655736
0.72820896 0.10381457 -0.015317203
0.80788261 -0.1450133 -0.015590744
0.94873106 0.19055323 -0.0081518525
0.77395809 -0.05451712 -0.014941862
0.70788312 0.073030978 -0.014615622
0.92791063 0.17048825 -0.0099542029
0.93245065 -0.15478235 -0.011566941
0.72292519 0.14809938 -0.014434704
0.98287696 -0.064755812 -0.010262113
0.98333919 0.071135014 -0.0082355421
0.92835975 0.16503894 -0.0084960563
0.9780075 -0.069652453 -0.010284724
0.96099669 0.029745713 -0.0039629289
0.91839868 0.18466261 -0.0099701956
0.92325997 -0.10484374 -0.011540108
0.78834057 0.030270578 -0.013475044
0.68809974 0.035847358 -0.016700249
0.8638981 -0.19132426 -0.013051817
0.81877828 -0.056041688 -0.015030095
0.94778317 0.079667151 -0.0087435972
0.8577736 0.18019539 -0.010976323
0.89833552 -0.17489187 -0.011908549
0.85796845 0.10067961 -0.0056060869
0.89321148 0.13988653 -0.010370557
0.88341415 0.11524664 -0.01175212
0.76339447 0.045602154 -0.014826069
0.97321188 0.019708639 -0.010202249
0.89349294 -0.074823543 -0.011897553
0.83847457 -0.085833691 -0.012866807
0.92848021 -0.035275809 -0.00041131981
0.83988982 -0.042793814 -0.0036836646
0.79701322 0.030009201 -0.010465628
0.74844897 -0.079969965 -0.015380624
0.97306186 0.060394879 -0.010080247
0.88834411 -0.085017368 -0.0121084
0.90815145 -0.16003723 -0.012162294
0.90225387 0.1548042 -0.010465015
0.70405608 -0.050320569 -0.017078009
0.88806117 -0.11988637 -0.011783796
0.72609836 0.17454623 -0.014737039
0.73290372 -0.14192529 -0.017372934
0.91842812 0.14968459 -0.010116154
0.92397219 -0.14937036 -0.01114216
0.98900098 -0.034121357 -0.0089026596
0.71786761 0.09302178 -0.014898722
0.92284524 -0.054694496 -0.01105218
0.76712602 0.1699409 -0.014598308
0.8038789 -0.075543463 -0.013377293
0.73798239 0.10295453 -0.01398535
0.93820202 -0.064666033 -0.010830821
0.99370784 0.039989553 -0.0094955564
0.74288994 0.10301565 -0.013884931
0.78313684 -0.044527836 -0.014942277
0.7830497 0.054689363 -0.013583621
0.84318465 -0.054127838 -0.011426558
0.85748196 0.095001712 -0.0019860407
0.77245098 0.16113099 -0.014326711
0.90820301 -0.094421744 -0.011519498
0.96366107 0.049561549 -0.0099160252
0.72300738 0.12296703 -0.013910803
0.93317676 -0.1049664 -0.011611395
0.78335959 -0.03524372 -0.014789851
0.91340113 -0.19001223 -0.012536395
0.73858464 0.065083034 -0.015285222
0.9085831 0.13513686 -0.01046693
0.84382254 -0.16886339 -0.013445065
0.83886027 0.13019288 -0.011931383
0.86315316 -0.14568099 -0.012346082
0.85822207 0.13561869 -0.011424726
0.99442405 -0.099953875 -0.0089645777
0.74409318 0.13024779 -0.013715327
0.90836078 -0.13990432 -0.011289262
0.90308219 0.17558773 -0.010121994
0.95351708 -0.09004727 -0.0104921
0.95786381 -0.049741581 -0.010236454
0.90841204 -0.10536298 -0.011747899
0.85849363 -0.064826824 -0.012969298
0.74275762 0.13299873 -0.013562249
0.94304335 -0.10482015 -0.010878036
0.78287244 -0.085062832 -0.014038236
0.78240341 0.016125392 -0.013724412
0.77371484 0.11516251 -0.014363066
0.89832133 0.18044409 -0.010453447
0.90313494 -0.1290465 -0.011692547
0.88797039 -0.099878207 -0.012296371
0.98849601 0.11413112 -0.0097643202
0.90341026 0.17988724 -0.010252705
0.90849674 -0.14440332 -0.011695184
0.8184287 -0.054792557 -0.013757369
0.78381807 -0.089675337 -0.013822629
0.75826663 0.049674086 -0.014914442
0.86316943 -0.10512644 -0.01246304
0.78844643 0.050713997 -0.013572184
0.90298373 0.020314664 -0.011235113
0.79824793 0.15001409 -0.012535459
0.78340328 9.6783217e-05 -0.014611358
0.97811455 -0.1095098 -0.010453977
0.88839012 0.12050352 -0.011011275
0.80791199 -0.10007293 -0.013093266
0.88368374 -0.054739758 -0.0024758617
0.73860723 -0.0049014552 -0.015023862
0.76891261 -0.10511521 -0.015401589
0.90299374 -0.114279 -0.011908503
0.89777803 0.16540001 -0.010190396
0.96823961 -0.0049762535 -0.010297246
0.7479021 0.079492509 -0.01478568
0.99784744 0.015851147 -0.0095305424
0.85840696 0.10593156 -0.010931938
0.72807586 0.0097832112 -0.015248932
0.90851253 0.19037467 -0.010359308
0.913046 -0.12454977 -0.01154576
0.74386764 0.055059753 -0.015549472
0.94868183 0.055443529 -0.00041129865
0.818564 -0.039259095 -0.01272793
0.8840726 -0.0092449719 -0.01196376
0.99315399 -0.081011862 -0.0097176032
0.83778512 -0.13696642 -0.014361645
0.8627072 -0.16418666 -0.012854023
0.85810292 0.15529178 -0.011218175
0.79789817 0.082930572 -0.014520315
0.83309066 -0.10451186 -0.012566091
0.87373734 0.11019843 -0.011495354
0.71294397 -0.06021456 -0.016910279
0.80867338 -0.12655328 -0.013536747
0.72317171 -0.11055274 -0.016939173
0.80250788 0.18979014 -0.012691008
0.85375059 0.12558474 -0.011959249
0.87322694 0.0092472211 -0.012272488
0.94847691 0.16889274 -0.010121619
0.95340538 -0.16507031 -0.01019329
0.88311875 -0.061247673 -0.010231683
0.96442199 0.010190547 -0.0096849129
0.76316071 0.004773614 -0.015569721
0.80248493 -0.12678131 -0.014453838
0.78333694 0.13939632 -0.012689791
0.73499376 0.077804834 -0.014163128
0.93299735 -0.05998889 -0.010709211
0.86284626 -0.12480709 -0.012607421
0.80784166 0.083002537 -0.014920332
0.72791821 -0.020276245 -0.015598809
0.95214874 0.18803002 -0.0095300935
0.95805979 -0.13434209 -0.01115047
0.76815647 0.15517463 -0.013209311
0.85900521 0.10361701 -0.0077317315
0.86809433 0.040094364 -0.012110876
0.99778354 0.05593241 -0.0094265984
0.88817525 0.00020719304 -0.012172797
0.91453207 0.13556904 -0.0090177488
0.94791317 -0.08972986 -0.010327455
0.84365332 0.12038045 -0.012160709
0.98360646 0.040564481 -0.0089505157
0.87286186 -0.05650663 -0.0055505363
0.75362206 -0.10023184 -0.015506459
0.87817609 -0.10978383 -0.012330608
0.8589229 0.099167615 -0.0031441688
0.70446855 -0.10462724 -0.017123433
0.73296905 0.083054557 -0.013913864
0.74800801 0.00060292514 -0.013964983
0.86873412 0.034983784 -0.011968679
0.88291162 -0.070175759 -0.012305174
0.75813997 0.024700657 -0.014566788
0.72808081 0.065785818 -0.015538758
0.75735933 0.13502632 -0.014237131
0.88340181 -0.075092226 -0.012516419
0.89838862 0.17011254 -0.010300443
0.9031058 -0.11981281 -0.011692596
0.88887286 -0.11012902 -0.011874822
0.72210371 0.12838738 -0.016529687
0.76406276 0.059892669 -0.013881402
0.75791001 -0.060084168 -0.015319118
0.9592483 0.10956841 -0.010337835
0.8092041 -0.15870021 -0.013805974
0.80266464 0.16456845 -0.012057977
0.79736263 -0.070413277 -0.013647547
0.9491393 -0.18006878 -0.011124643
0.94282329 0.13486026 -0.010492765
0.79407483 0.035169095 -0.01260871
0.98402399 0.10008512 -0.0085217487
0.84862131 -0.15024637 -0.013111442
0.84283608 0.17545007 -0.011171434
0.7639643 0.024941728 -0.015206967
0.85388744 -0.081360519 -0.014389861
0.94825858 0.19350311 -0.0093878098
0.95358706 -0.10987049 -0.010943235
0.79017609 0.18982482 -0.012523552
0.9681136 -0.020132516 -0.010221154
0.82804024 -0.074713252 -0.012749515
0.79285806 0.012998091 -0.014409544
0.73848683 0.044535797 -0.015000322
0.91830385 -0.17524436 -0.011947052
0.91289973 0.1501219 -0.010561022
0.7278648 -0.12700352 -0.017424218
0.91295499 -0.052991249 -0.0076287305
0.84320951 -0.109966 -0.012543937
0.93285596 -0.074923024 -0.011094622
0.87878269 -0.054376423 -0.0019475218
0.88285434 -0.084804349 -0.0123276
0.84783161 -0.12033676 -0.012395659
0.76362813 0.10524298 -0.013479704
0.88314682 -0.089951351 -0.012308138
0.85318768 -0.16875188 -0.013037333
0.84850693 0.14499165 -0.01138679
0.86838549 -0.075253211 -0.012862114
0.76303679 0.079672165 -0.014413928
0.77020115 0.19144242 -0.013788054
0.89857996 0.19515693 -0.010246184
0.90269232 -0.14519502 -0.012303756
0.94312537 0.19471624 -0.0097349202
0.9488138 -0.11948996 -0.010552409
0.79375958 0.084942937 -0.013445462
0.76361978 0.095072106 -0.01347568
0.77813113 0.085455835 -0.013454239
0.9527396 0.17789641 -0.0094461441
0.95940644 -0.14434175 -0.010861978
0.73366141 -0.054528974 -0.015562765
0.7585212 0.079900928 -0.014599029
0.7481007 -0.070343308 -0.015295028
0.74921632 0.03033204 -0.014884311
0.9733817 0.14564633 -0.0082739145
0.8778168 -0.074657649 -0.012428312
0.883228 -0.11000277 -0.011836853
0.82322407 -0.064837046 -0.014853066
0.76838809 -0.0046681697 -0.015205842
0.92365021 0.16481754 -0.0087066498
0.79760426 0.088876605 -0.014404503
0.74818397 -0.10475908 -0.015635138
0.74247706 0.14435068 -0.015461822
0.85300344 0.096236594 -0.0046428847
0.80302387 0.00044258748 -0.0065153185
0.99298537 0.05998994 -0.0082391715
0.86347568 -0.068873778 -0.013076885
0.68243688 -0.0045066723 -0.016720295
0.84378964 -0.14395663 -0.012689978
0.83873528 0.18505955 -0.011625217
0.76285446 -0.040224202 -0.015441943
0.88392651 -0.11972127 -0.011882692
0.8433041 -0.13983819 -0.013136403
0.83886087 0.17960352 -0.011568225
0.99831897 0.00023584225 -0.0085363882
0.73749757 0.069212772 -0.014966723
0.95426756 0.065448172 -0.0099579021
0.85820913 0.0400883 -0.012582687
0.85354501 -0.094308339 -0.012385872
0.87837106 0.010222737 -0.011985349
0.77766329 -0.059900999 -0.015288063
0.86327022 0.0099474099 -0.012282289
0.95403737 -0.035032976 -0.010661925
0.87250763 -0.061134797 -0.01018964
0.74270195 -0.1110947 -0.016111659
0.91258436 -0.055330228 -0.010398286
0.80814427 -0.06010263 -0.014782245
0.84342271 -0.11021933 -0.014286548
0.91292936 -0.074885935 -0.011436325
0.93395597 0.10470615 -0.0088954037
0.79810309 0.049896687 -0.012289423
0.79745698 -0.090092316 -0.01307643
0.86335295 -0.094761208 -0.012627353
0.99306679 -0.038876757 -0.0096511664
0.79791915 -0.076578207 -0.01504591
0.73364669 -0.0097201159 -0.015857449
