ply
format ascii 1.0
comment Created by CloudCompare v2.11 alpha (Anoia)
comment Created 8/28/19 10:36 PM
obj_info Generated by CloudCompare!
element vertex 1878
property float x
property float y
property float z
end_header
908.16 -39.1837 1.47249 
906.133 88.5978 1.65195 
932.173 26.3614 2.37476 
901.837 75.0807 0.388881 
903.993 -47.2806 -0.59511 
905.929 8.66996 25.3385 
904.539 10.8383 23.6101 
932.062 44.5522 3.56842 
890.085 82.3927 1.48116 
826.246 22.8732 3.0898 
842.136 12.2541 21.6094 
896.43 -3.7037 23.9608 
889.685 68.3464 7.25489 
905.172 58.2077 14.8934 
896.134 -31.2423 1.41494 
894.152 94.9085 1.42317 
860.088 -19.3982 3.46658 
890.184 78.7357 1.70686 
922.573 25.0335 8.27469 
892.328 74.8053 2.03809 
911.993 8.86158 23.6403 
880.042 -13.0328 23.5905 
840.031 32.6017 15.7412 
894.109 54.7454 25.0219 
912.296 -31.3683 1.4938 
840.62 53.704 7.17086 
903.968 -45.4177 1.70918 
902.225 88.5217 1.64725 
927.703 50.307 5.12482 
916.106 74.46 1.49802 
876.354 82.2156 2.89266 
884.164 66.6194 11.3721 
887.726 58.9452 20.3022 
884.135 74.7612 3.47779 
806.202 26.697 -0.412709 
864.047 64.5281 9.65867 
854.17 46.7374 23.8661 
887.884 86.7523 0.165026 
890.23 -39.1008 0.0753435 
892.115 68.9516 5.41169 
911.733 92.7727 1.37719 
914.302 -33.2406 1.61228 
922.508 16.2625 5.24478 
857.66 -23.3733 1.72689 
837.743 52.659 1.64619 
890.156 -45.617 0.0949859 
887.917 85.204 0.42122 
850.259 -31.1802 -0.272101 
940.024 18.7187 3.36481 
852.118 82.6123 -0.073577 
854.334 -43.3684 -0.369434 
888.132 74.4015 3.4135 
818.153 56.8009 -0.37144 
819.992 -11.3381 -0.723217 
885.826 58.5227 24.9372 
915.729 3.00904 15.5223 
927.649 11.0164 2.47013 
874.383 -17.4487 13.5021 
837.936 28.7525 11.5981 
855.932 61.9938 11.1639 
840.262 8.80931 13.4046 
827.597 50.6816 -0.174304 
916.675 0.521236 9.38349 
920.042 36.8907 11.4295 
916.765 6.38901 21.3078 
897.736 83.573 0.397659 
900.305 -45.8723 -0.31912 
919.891 21.1646 24.0645 
896.222 48.6657 24.0201 
886.499 51.5068 24.5292 
918.802 59.9702 2.56814 
931.899 32.8148 3.76836 
846.047 -36.9944 -1.60662 
915.937 80.7334 1.56728 
939.99 -11.251 1.5911 
909.994 62.7293 5.34897 
918.174 -35.4264 2.92409 
890.002 -47.2404 1.43143 
888.009 78.6936 1.66028 
848.154 36.7337 23.3684 
819.988 -5.28733 -0.490253 
898.29 -5.20846 23.6206 
899.765 -6.03767 21.816 
860.287 58.1728 21.9082 
900.471 -11.4081 14.1204 
901.431 62.7767 3.23187 
915.63 14.8386 25.1853 
906.482 -7.25311 20.2396 
874.109 -19.7802 8.18199 
903.967 50.6263 24.8866 
897.598 -21.0822 5.3706 
952.173 26.8234 1.67769 
888.106 76.5696 3.31804 
867.959 94.7944 -0.0356882 
870.121 -31.1687 0.0697669 
852.028 -17.0468 3.39728 
907.981 54.9415 13.5019 
902.209 4.54505 23.772 
901.763 -13.5049 9.64473 
901.896 94.4779 1.02481 
904.034 -35.3596 1.49162 
906.17 -45.3442 0.00339436 
888.148 -9.12804 25.0452 
917.719 -37.2209 2.88001 
890 -45.4247 1.54535 
888.184 84.4625 1.52766 
846.202 -9.03125 3.74054 
941.984 38.3974 1.95203 
837.962 32.7839 6.27978 
834.052 22.3684 7.42435 
939.755 -5.30552 1.8675 
814.036 22.7336 1.36891 
901.818 79.1333 3.1625 
897.957 -1.65051 21.9214 
900.169 -15.6583 7.79028 
916.133 -41.1811 -0.0193416 
885.921 70.6581 5.61385 
888.921 -8.04367 22.3357 
907.576 58.4254 9.38055 
896.645 -2.23369 21.9862 
882.43 -41.2754 0.0231522 
879.91 84.9965 -0.0701421 
859.057 55.1609 18.2809 
815.842 20.7157 0.876185 
922.872 13.4458 4.26529 
832.386 26.5993 7.19383 
812.084 26.7813 -0.345452 
898.034 58.8643 17.6014 
838.04 -5.4241 0.29239 
932.221 -30.9498 1.18378 
910.34 70.7102 3.40633 
885.947 -31.4496 0.476895 
848.525 20.8509 25.1338 
859.312 -16.1182 6.06491 
923.849 86.5018 0.942222 
884.129 96.7454 1.3751 
886.16 -33.2886 1.54101 
858.161 96.5762 0.745492 
860.072 -23.3928 1.78063 
834.242 8.63737 -0.0711023 
919.935 -5.43195 5.37097 
824.608 -8.93812 -1.4269 
881.812 -7.2947 24.1546 
941.888 6.86218 1.85171 
882.232 78.658 2.98058 
900.3 -23.4478 3.77741 
830.004 20.9405 5.46087 
907.956 66.6953 5.50387 
899.932 90.6221 1.68467 
902.041 -35.3825 1.53623 
913.968 -25.3197 1.57268 
844.053 8.60332 19.6591 
870.18 -48.0548 0.765761 
868.235 78.7362 1.55125 
904.259 -17.4462 3.69413 
824.023 28.8386 -0.125708 
914.217 -4.07999 3.95992 
900.274 76.593 1.69005 
868.063 -29.2824 1.32548 
866.112 82.7782 1.18824 
904.251 -21.2616 3.69081 
852.037 -33.3664 1.399 
919.837 30.8626 21.417 
937.983 74.299 1.01334 
907.882 53.1548 17.6103 
905.634 0.559555 25.4158 
884.382 -41.6234 0.102077 
903.929 66.582 5.20583 
842.078 16.8399 19.7229 
841.653 42.7577 11.5777 
862.947 97.8166 0.768427 
864.343 -35.3474 1.1746 
813.796 60.4559 -0.0615219 
855.988 2.70116 23.7556 
900.153 -29.392 1.67523 
909.97 52.8074 13.758 
838.232 -11.295 1.5032 
904.499 42.4684 23.7663 
920.108 38.9147 11.6434 
836.014 -25.253 -0.561205 
662.538 -141.999 -89.7355 
926.327 12.7981 3.97602 
840.292 -35.1876 1.12483 
907.993 0.469731 23.5642 
862.061 70.6541 3.43008 
825.905 -29.4341 -2.33517 
847.986 46.6943 19.7984 
809.84 -1.34387 -1.04301 
837.046 41.7285 2.37789 
926.015 4.58512 5.19731 
817.998 0.421705 0.763041 
950.11 6.51541 1.70824 
902.406 68.6866 3.67103 
858.126 90.7732 1.17915 
902.701 55.525 18.083 
916.178 -9.40462 3.72553 
910.113 -15.4036 3.84232 
867.89 63.025 13.5195 
885.898 68.7831 7.58397 
847.229 -39.5081 -1.43581 
824.061 -5.47502 -0.230921 
898 -25.3876 3.88907 
855.983 4.92166 25.0385 
894.002 -49.1917 1.35761 
891.962 76.7053 1.88076 
874.298 -25.2975 3.17624 
940.239 -17.0914 3.07411 
908.179 4.56912 23.741 
842.067 -3.53627 5.53835 
882.055 92.8268 -0.103762 
848.68 52.5139 13.3439 
896.243 98.9838 1.07757 
898.152 -31.2136 1.45077 
818.362 38.6055 0.864431 
911.988 -13.2665 3.89175 
929.745 -3.09724 3.3436 
861.902 52.7475 23.6468 
864.897 88.1174 2.67011 
831.528 66.5237 0.942398 
881.922 80.7055 1.45979 
869.889 66.7361 7.5175 
814.621 29.9306 -1.43788 
858.088 62.6371 9.38196 
839.776 34.7668 11.8687 
878.388 -16.9809 17.4566 
886.044 82.9458 0.0999866 
888.172 -47.5717 -0.174547 
915.543 24.8051 24.9848 
907.94 -35.0292 1.66024 
905.901 84.4485 1.6242 
908.116 56.8186 9.45048 
909.981 28.4514 25.44 
920.035 -9.23906 3.95872 
894.513 66.8275 3.55206 
940.096 14.6904 1.56844 
892.273 58.7428 19.5925 
881.883 88.8317 1.11895 
908.001 -9.22574 11.2726 
832.206 -13.3668 -0.0688109 
933.949 -5.4092 1.5023 
844.447 12.4837 22.9543 
848.057 40.8651 23.3421 
854.217 -31.332 0.971161 
825.922 -27.5069 -2.31101 
892.2 -41.027 0.00927744 
890.195 -43.3417 0.148703 
887.775 82.6892 0.467312 
924.479 22.7254 5.55377 
889.92 70.6156 5.27708 
897.974 -33.4023 0.126692 
840.582 34.1993 18.1973 
671.807 66.7554 -90.4103 
940.216 38.739 1.9488 
823.864 30.4677 1.63466 
884.095 -14.9758 17.9954 
922.055 -9.22926 1.69445 
943.893 2.69903 1.99463 
892.426 56.7035 21.8978 
885.781 54.6998 22.3558 
871.541 -24.0681 8.82948 
877.869 68.6225 7.67189 
838.071 48.7934 1.83579 
842.055 54.7274 3.37386 
844.363 36.6425 21.5638 
818.283 0.599077 -0.438102 
843.754 46.8352 9.6716 
905.935 54.8574 17.6994 
904.227 80.3616 1.0941 
922.161 -37.5076 -0.192841 
924.102 72.6723 1.3222 
883.97 94.5483 1.28463 
885.997 -31.5436 1.65022 
920.248 -7.12142 3.76121 
947.916 34.6186 1.68034 
882.41 58.8851 21.8327 
832.437 16.605 5.48551 
910.001 32.9968 27.6534 
846.048 30.4108 24.983 
833.558 26.8475 4.18499 
929.974 78.8432 1.24255 
848.016 56.7302 5.64269 
899.493 54.0327 24.655 
941.892 18.2025 3.09439 
824.326 22.7931 -0.0914811 
911.887 36.6842 25.1205 
812.312 14.7172 -0.416822 
951.888 2.79935 1.03053 
912.571 -37.3237 1.69861e-05 
897.869 -12.0364 15.7979 
855.806 55.489 15.7883 
862.271 -31.089 0.0741087 
908.162 8.48808 24.1074 
837.803 8.87193 5.87879 
816.087 32.6044 -0.528817 
916.163 86.7492 1.58212 
917.946 -39.142 1.28979 
927.948 74.6626 1.38089 
896.356 -27.0476 3.29188 
894.224 57.3788 19.6957 
939.762 6.53095 1.90163 
810.372 26.8312 -0.25939 
913.912 12.6231 23.7441 
903.981 -1.39959 23.6061 
906.419 8.41772 23.6076 
913.792 70.8762 3.11451 
918.057 -7.51369 4.08097 
912.317 -43.1565 0.116069 
904.186 -39.2625 1.56832 
901.823 82.5336 1.45385 
930.001 60.6591 3.49387 
928.098 -17.3157 3.03252 
880.166 78.657 3.21744 
834.088 -15.528 -0.124598 
907.983 -21.3358 3.48477 
924.14 62.8225 3.1837 
890.863 57.1906 21.9738 
861.888 56.828 21.7358 
812.079 -7.19406 -2.12571 
847.919 78.5564 1.18272 
896.011 -23.1455 4.91323 
920.05 36.8826 7.64641 
886.34 60.8106 21.8784 
842.645 8.69336 17.4005 
932.194 24.8318 3.61793 
902.159 78.5973 1.66356 
890.061 84.6873 1.75533 
900.26 60.9004 11.6934 
833.835 46.7406 1.91479 
925.938 -31.4182 0.161395 
880.128 70.6769 6.95884 
894.118 72.7934 3.23213 
820.439 42.2946 1.1756 
854.288 -3.07704 23.1769 
890.875 -7.87062 22.2297 
896.117 -33.2489 1.36505 
893.721 96.4483 1.2792 
921.895 64.7486 4.66847 
862.229 77.1698 0.171459 
864.011 -45.5054 -0.187743 
891.963 92.7689 1.64592 
894.05 -33.398 1.50466 
876.029 -49.3214 -0.133475 
873.58 83.0486 -0.257186 
827.929 12.4177 1.48745 
951.951 6.49752 1.61314 
831.876 4.50311 1.61037 
916.593 -37.1725 -0.206471 
881.994 63.3096 15.6289 
948.213 4.64915 1.83678 
920.212 26.9103 14.1641 
897.994 64.8725 7.14146 
814.384 -7.3805 -0.495321 
818.118 67.4396 -0.1601 
820.208 -21.4611 -0.723254 
892.095 -13.5974 19.7104 
882.333 -35.3052 0.264199 
878.149 78.7082 3.36645 
942.087 60.5774 3.35509 
816.185 52.5561 -0.64348 
930.255 24.5157 4.21152 
858.895 -44.0555 -1.52789 
907.828 4.30941 24.9411 
923.886 38.4608 7.00721 
852.031 -5.47266 17.4956 
859.384 55.1321 19.2386 
948.191 2.70917 1.83294 
874.382 92.7033 2.60375 
876.285 -27.2249 3.4303 
946.176 24.7085 1.82716 
937.854 8.65432 1.84858 
808.331 24.4447 -0.391402 
949.69 24.446 3.3279 
839.912 56.4466 3.25708 
882.023 -27.2821 1.74338 
928.111 46.2287 2.20567 
894.111 59.1061 17.5775 
878.113 -33.2777 0.157395 
876.23 92.416 -0.0979785 
848.105 8.80704 23.6106 
919.981 -25.6752 0.488995 
929.904 34.6591 3.91909 
878.179 -39.4635 -0.191293 
876.006 90.4039 -0.0282541 
878.203 72.4272 5.4672 
882.805 54.6772 22.5205 
894.14 76.6397 1.80012 
895.902 -45.1483 1.27493 
938.054 46.7594 1.79752 
842.268 20.5513 21.6074 
864.435 58.5781 23.254 
932.074 -13.1854 3.73757 
874.855 -10.2128 22.0841 
860.296 -16.993 7.38628 
910.291 49.0112 17.2785 
816.346 56.5233 -0.281558 
935.883 60.8361 1.61837 
930.11 -27.4294 3.41604 
875.954 65.0333 13.488 
896.038 84.5743 1.5161 
898.3 -41.1512 1.48521 
910.3 -9.24803 5.52223 
822.081 32.6165 -0.094127 
922.603 14.4213 5.39137 
870.152 63.0665 17.6633 
882.088 91.1506 -0.117172 
951.15 44.1865 2.74885 
836.34 38.6631 7.36418 
912.112 4.71837 23.7039 
900.125 88.5798 1.70856 
902.252 -41.4072 1.36035 
898.05 -7.39133 21.8716 
827.832 42.5566 1.6663 
894.305 -11.3785 19.6786 
931.968 22.9697 7.18901 
861.99 60.7776 8.04866 
885.979 -13.5561 19.4917 
855.949 76.6948 -0.0373893 
879.958 -33.365 0.259278 
878.123 88.7942 -0.206054 
881.472 62.184 22.8605 
906.011 38.6918 25.1295 
895.566 66.6345 7.32214 
919.632 22.6432 19.6816 
877.914 -45.3131 1.18786 
876.245 80.5423 1.49451 
939.854 -21.0957 1.60772 
830.338 -5.76496 -0.110316 
853.899 54.9296 15.5398 
820.114 26.6475 -0.268195 
806.225 22.8722 -2.34012 
846.151 -1.29661 13.602 
846.06 75.0778 0.904414 
951.958 10.6877 2.98919 
837.932 36.4279 7.72172 
841.853 32.7085 19.7672 
930.909 34.0725 2.54901 
915.989 52.7013 5.5533 
874.217 70.5691 5.455 
917.687 30.6354 23.5515 
916.129 40.7592 13.5996 
881.769 60.7161 23.3243 
840.901 24.2613 21.4466 
866.436 -31.3349 0.0313801 
874.267 88.3152 -0.0620846 
849.922 46.7713 21.47 
812.316 2.6835 -0.800105 
903.79 -15.2976 5.58336 
860.34 68.5321 5.67061 
914.142 -5.79233 3.95208 
902.292 54.4874 21.403 
817.658 -11.5775 -1.83377 
918.574 -5.66349 2.42742 
914.324 64.4353 1.89803 
943.846 64.6904 1.47932 
943.682 60.312 3.09259 
842.321 34.5364 19.914 
837.924 2.66406 5.76068 
893.848 92.7945 1.54248 
896.197 -29.3873 1.64922 
879.998 90.6418 -0.150661 
882.203 -39.1543 0.0166668 
918.016 20.7557 19.7082 
914.803 43.159 19.6206 
886.218 54.5856 23.9362 
875.653 -51.1921 0.797284 
873.917 84.5797 1.4849 
803.906 36.3801 -2.38322 
951.904 48.3416 1.2117 
844.086 12.5806 21.59 
876.157 65.2683 11.3556 
862.331 -23.5098 1.63989 
858.024 74.8487 1.54966 
893.703 -35.1532 0.323705 
816.058 42.5338 -1.98136 
887.662 -7.33013 24.1167 
902.536 -37.1048 0.0716729 
868.369 70.4203 5.36665 
953.791 4.48616 1.22305 
908.382 68.8956 2.03544 
853.946 0.752876 23.7102 
936.017 16.9246 3.31182 
816.163 -1.40313 -0.542486 
804.99 18.0294 -0.706982 
948.121 30.6162 1.94196 
877.959 62.4187 21.313 
872.248 70.6451 6.99212 
881.905 -10.8806 24.9897 
943.861 10.6845 3.28934 
874.107 -33.193 0.0833589 
949.7 -3.43179 1.42171 
876.023 -47.5449 1.22743 
874.103 80.6668 1.5504 
872.185 70.7609 5.4436 
888.411 94.729 2.94276 
890.107 -30.8955 3.23115 
925.872 44.7676 5.26908 
914.256 -43.4316 -0.105061 
902.054 -39.4489 0.075579 
900.176 48.5244 25.7228 
912.009 16.8049 25.4401 
838.103 8.7891 9.55302 
836.058 14.8254 7.51548 
893.897 -14.4129 18.8471 
898.252 55.1357 20.299 
837.977 5.17869 3.70199 
922.168 66.5673 1.58952 
828.236 -5.34233 -0.117425 
876.257 -21.5228 3.50186 
905.507 -33.1765 0.171854 
929.93 62.7359 1.95719 
839.905 44.643 7.46623 
848.05 44.5327 19.8293 
850.127 68.8452 1.61071 
923.978 -15.1795 1.80449 
911.838 -17.3421 3.42164 
880.019 -37.0669 -0.110389 
878.26 92.9178 -0.101567 
914.2 -7.64406 3.98178 
894.287 -13.3608 17.4117 
929.988 20.4833 3.91231 
886.916 -9.7871 21.5126 
912.199 -19.3426 3.14515 
872.09 -27.0712 3.80843 
844.27 26.7135 23.412 
811.947 -9.27189 -2.22523 
886.284 -11.2138 20.3244 
908.248 -29.1784 1.37373 
887.941 -23.3459 3.81812 
914.006 60.7716 3.96943 
918.393 -1.2415 4.17945 
888.253 -25.0733 3.34078 
914.192 62.657 3.77787 
918.038 0.600013 3.94248 
898.202 -23.2849 3.7262 
887.968 86.6086 1.50558 
890.309 -39.3204 1.6316 
911.196 94.8391 0.853876 
913.982 -35.3538 1.50817 
896.897 -7.87307 21.4667 
946.006 30.7931 2.05417 
892.509 -9.37515 21.888 
901.684 55.8249 23.0317 
868.643 -23.6378 8.65344 
890.095 -14.0542 16.7708 
914.158 66.6641 2.09347 
830.007 32.4669 3.78407 
869.866 94.6659 -0.0496961 
871.926 -35.3122 -0.0373881 
929.906 54.6318 3.39427 
849.969 9.00323 24.874 
827.999 8.80544 1.33299 
827.961 50.8339 1.16996 
938.065 0.821247 3.10489 
872.137 -14.9175 21.6217 
936.543 28.5372 1.98098 
924.058 -11.3415 3.24914 
848.22 -29.7394 -0.245432 
888.508 -26.949 4.86098 
816.094 42.5291 1.02587 
889.664 -29.3475 4.97898 
844.189 82.7979 -0.226981 
838.028 34.8219 7.34907 
845.548 14.0874 20.5312 
873.976 -15.5941 19.7793 
850.183 48.7746 19.6212 
902.074 -25.2525 1.69825 
852.101 58.7333 9.4395 
832.755 53.8838 2.97907 
864.133 74.695 1.83585 
925.921 -3.38617 3.8846 
831.853 56.8762 1.06334 
891.884 -50.9663 1.04246 
889.959 76.8252 1.71818 
849.993 58.8698 5.84948 
826.17 6.70251 -0.237848 
920.214 14.7176 13.8323 
889.942 -17.3903 13.8229 
924.564 36.2368 4.16622 
941.75 1.35252 4.76132 
892.315 63.3181 13.6137 
856.084 -41.3851 -0.322399 
854.037 92.7029 -0.185447 
899.718 56.2479 19.5163 
920.313 56.7792 3.9529 
940.197 16.7203 1.60392 
920.309 54.7833 6.69491 
886.233 -15.6414 16.0836 
916.172 78.7117 1.59452 
808.357 40.8081 -0.0216179 
844.072 -15.1947 1.4437 
844.785 4.61422 17.4781 
867.556 98.9064 0.775619 
870.34 -27.296 1.65692 
855.957 -23.0042 1.75849 
846.128 36.6764 21.8758 
834.113 48.4972 3.2868 
838.405 10.7951 3.79924 
882.85 55.91 22.5346 
891.939 -49.2332 -0.18258 
914.034 -21.4625 1.77023 
916.101 56.7654 3.96229 
904.594 -13.6429 5.69522 
898.61 -29.4182 0.151285 
922.467 31.0131 7.90661 
916.12 36.7971 21.7484 
950.167 46.7349 1.40755 
848.225 4.99968 23.1058 
844.241 18.7318 23.3941 
880.791 62.4172 22.9508 
809.976 -1.3277 -2.34853 
929.874 10.3847 3.63497 
853.023 52.6088 21.2911 
914.243 0.845595 17.3131 
866.16 -7.25571 23.704 
896.134 -19.3922 3.46482 
904.018 53.0071 21.4313 
880.346 -21.4285 5.7964 
828.249 -27.5394 -2.08663 
839.88 -11.1431 1.67931 
852.076 78.9501 0.0558533 
853.978 -47.2034 -0.690923 
856.44 58.1588 17.509 
839.854 48.8749 3.63969 
847.569 14.8696 21.9588 
948.39 -11.2371 1.26389 
843.609 6.3338 13.6421 
934.028 16.6557 3.33071 
852.245 36.7679 25.0434 
893.984 74.893 5.66211 
882.059 -28.8473 0.0211937 
857.991 56.8993 15.9215 
872.426 -29.2896 1.39392 
890.079 92.6848 1.56175 
892.328 -35.3391 1.4916 
846.151 72.7727 1.17256 
886.007 -29.2884 3.73051 
922.108 46.8173 4.31945 
816.728 48.2485 0.921986 
835.902 18.8911 7.68832 
862.268 -19.2146 3.64591 
841.219 32.626 15.8575 
849.904 50.8127 15.6598 
826.003 -17.3628 -0.529468 
904.015 -5.20493 22.0795 
916.308 14.8455 19.725 
901.97 62.244 9.26621 
927.923 -29.2017 3.27164 
956.036 26.332 1.30829 
825.898 -16.8926 0.889493 
870.037 -39.2502 0.125 
868.17 86.7073 0.034093 
948.054 40.7345 1.77321 
842.936 61.1648 4.87831 
817.812 6.97571 -1.64072 
929.934 56.5745 1.83549 
934.141 76.916 1.13609 
822.253 65.0184 -0.713624 
915.992 -17.13 2.98094 
912.418 72.7059 1.68845 
831.571 20.5298 3.31899 
922.194 10.7032 7.83015 
826.208 34.3612 3.14877 
890.161 58.8764 19.7323 
898.742 -9.90544 17.259 
913.94 35.0387 25.3501 
921.391 55.3597 6.66567 
917.484 -11.0793 1.49467 
914.038 74.9279 1.55286 
862.011 -43.3129 -0.0238627 
860.062 86.6331 0.121977 
907.956 46.7452 23.5666 
897.921 66.6478 5.3533 
841.985 60.772 1.56818 
902.008 80.5569 1.43838 
930.137 8.65506 3.02304 
943.997 -7.20363 1.84872 
914.006 58.7662 5.41174 
918.55 4.43717 5.31529 
937.916 10.6479 3.10635 
850.344 94.6269 -0.888822 
827.898 15.0279 3.21562 
818.054 36.5259 0.89901 
822.17 28.7027 1.36506 
883.938 -45.5332 0.290881 
912.113 -33.0658 0.348358 
850.024 -9.45136 5.65007 
850.515 43.3056 24.7426 
808.007 2.45779 -2.32673 
862.072 80.7832 0.189675 
864.113 -49.2412 -0.516989 
947.985 26.7589 3.40931 
911.194 -26.9601 2.82592 
896.083 52.5906 25.2626 
918.056 55.043 6.99845 
846.577 3.16597 19.7455 
893.731 84.6654 0.272746 
895.854 -37.6506 0.215908 
844.878 -31.9876 -1.58977 
906.27 4.56089 24.0469 
924.229 20.549 5.47025 
842.385 -8.85221 5.49738 
920.928 9.29379 8.02471 
826.19 66.661 1.53205 
830.229 24.6399 3.54023 
816.151 34.8152 -0.576223 
917.129 8.19498 21.197 
922.376 32.1566 5.95713 
825.93 44.6939 -0.19647 
919.465 -36.2946 3.03541 
881.779 -26.7162 0.259734 
875.921 61.0959 19.948 
864.202 66.5534 7.37687 
846.369 -29.1972 -1.8131 
917.829 40.764 17.7984 
853.74 -11.3408 7.40955 
845.991 80.7163 -0.257667 
847.996 -41.225 -0.495036 
838.094 20.5889 13.5296 
909.991 6.69179 23.7249 
892.113 72.6447 3.3918 
826.192 -23.1444 -1.79679 
925.993 18.9402 5.68257 
871.948 73.968 5.35342 
941.938 24.8224 3.32051 
954.032 24.5267 1.39665 
914.181 72.8643 2.98354 
918.17 -13.3491 3.48826 
913.896 60.7444 5.36963 
917.992 -1.44828 5.72951 
888.157 -23.24 5.56725 
852.316 32.7665 24.9154 
850.787 92.8048 0.745694 
890.023 80.7287 1.72731 
922.219 68.8387 1.72006 
917.831 -7.14209 5.39666 
926.074 16.8004 5.74099 
831.468 -27.578 1.13817 
932.019 6.64597 5.20802 
866.303 57.0967 21.7407 
833.862 18.7213 5.90274 
861.617 -23.3636 6.17452 
860.069 68.8157 3.78787 
853.724 2.64189 23.7838 
847.979 30.6558 25.0394 
906.043 80.7226 1.32065 
856.169 -25.3467 1.38709 
898.102 -39.0842 0.0367973 
922.169 72.7881 1.4979 
916.889 -0.224989 7.23954 
919.761 32.8908 16.1005 
849.434 46.8949 18.3859 
934.065 -13.2685 1.73662 
843.879 64.4815 3.52272 
880.657 60.1715 25.1909 
948.019 8.52638 1.7837 
912.114 0.640279 21.983 
833.987 48.7675 1.7435 
946.235 42.5409 3.0826 
838.121 36.5673 9.56751 
913.904 22.7507 25.2427 
848.204 28.4019 25.4607 
822.207 12.7129 1.26735 
847.267 -11.8092 1.99663 
829.928 -15.2371 -0.339107 
852.068 12.6279 24.9887 
907.064 72.0853 4.69036 
852.251 10.6944 25.0947 
856.006 -15.2988 5.6087 
900.298 -6.90442 21.4515 
931.917 6.85984 1.93356 
832.268 -27.5157 -1.917 
946.1 40.6176 1.68672 
920.669 10.177 10.1365 
858.116 -15.381 7.48591 
873.947 -11.944 21.477 
854.181 93.885 0.627188 
856.145 -27.6929 1.16996 
888.023 67.9039 9.40832 
897.711 64.6233 9.1749 
870.002 72.2282 5.18567 
825.615 40.5884 -0.0944752 
839.994 -3.12897 5.45768 
821.571 24.5282 3.19968 
912.129 -5.14974 11.3232 
884.447 -33.2332 0.274952 
882.023 86.888 1.31186 
892.284 51.2726 25.4205 
873.992 74.7434 3.34338 
912.047 24.5954 25.3606 
864.083 61.0364 15.5663 
952.048 34.6862 1.56849 
918.405 76.9121 1.48548 
923.929 62.8338 1.92103 
838.033 36.697 5.69236 
845.235 44.9803 14.1236 
884.477 -35.618 0.0862242 
860.169 58.9219 17.6816 
879.974 -49.3551 -0.188286 
864.294 -3.33172 25.2804 
834.602 -9.10464 3.04802 
853.991 -19.9456 6.66374 
834.03 64.8616 -0.137745 
864.328 70.6974 3.71548 
952.021 32.6643 3.54265 
905.722 68.826 1.90333 
920.206 -23.141 1.74365 
893.744 -3.4043 25.1621 
860.164 70.7015 3.59198 
920.004 38.8762 13.5684 
842.275 -25.234 -0.316791 
808.328 16.7451 -0.772997 
845.854 20.8355 23.5989 
883.949 78.0095 0.514244 
886.101 -47.7499 -0.0363238 
915.346 1.26755 15.9519 
868.16 -16.3639 15.4941 
871.788 -50.9758 0.791052 
870.187 78.9373 1.60694 
838.407 30.6212 13.5852 
812.081 42.7896 -0.141534 
901.949 -9.27425 15.6114 
927.904 48.426 1.967 
892.225 -47.1098 -0.0655537 
846.081 0.360347 13.1227 
833.917 20.4196 5.97935 
913.868 34.6264 23.5378 
917.899 28.6081 23.1204 
904.082 -32.6762 0.166814 
884.194 -49.2898 -0.264123 
919.786 -8.95713 5.1049 
883.87 52.9311 25.1319 
843.82 16.5908 21.725 
881.631 65.6159 11.3897 
850.272 52.9091 11.7052 
925.87 48.5641 3.99149 
826.447 76.6772 -0.774202 
844.26 -25.18 -0.311635 
810.445 46.6508 -0.830045 
820.091 -19.2765 -2.33951 
944.175 18.6518 1.65843 
895.89 78.6017 3.10284 
932.137 4.65007 1.86997 
932.059 -13.3269 1.67554 
824.375 30.6719 -0.194078 
884.76 -41.4369 2.87915 
914.053 -13.1973 3.67114 
882.204 -9.32104 23.9338 
912.104 30.5047 25.4213 
898.253 84.6516 0.440666 
899.949 -47.5227 -0.204062 
908.026 64.6494 5.08791 
854.016 -7.64719 17.4325 
915.854 70.6251 1.46856 
896.832 -9.83723 19.369 
911.949 68.6933 2.14812 
879.861 72.8562 3.96193 
916.399 40.4889 19.8517 
949.922 42.5809 3.27762 
848.393 8.89007 24.9929 
920.163 40.7285 7.71605 
951.276 42.9876 2.70324 
932.153 22.6424 3.54637 
878.317 -21.6649 3.86482 
921.629 24.7405 13.8847 
938.226 24.6939 1.74431 
860.023 -41.2909 0.00816655 
858.148 82.9569 -0.0538744 
890.89 -9.95854 21.4722 
911.75 52.8033 11.5411 
900.22 42.6104 24.389 
930.166 12.8129 2.07577 
821.756 10.7133 -0.368087 
886.081 -23.3302 3.44597 
931.808 16.5989 5.53757 
895.862 82.5741 0.504571 
898.122 -47.4487 -0.085337 
846.241 54.6084 5.78846 
879.882 86.8068 -0.216004 
882.373 -43.5311 0.172045 
895.696 96.5239 1.16825 
898.212 -29.3842 1.653 
948.064 38.6709 1.56029 
917.817 54.8657 5.36637 
838.059 30.6921 11.7775 
926.321 18.9202 4.11986 
810.223 12.7808 -0.484914 
954.031 10.5341 1.0686 
947.952 45.0078 1.61354 
866.216 78.6555 1.58482 
868.001 -25.1433 1.56018 
842.33 26.6102 21.4514 
839.741 -12.9592 3.32491 
822.06 30.7313 1.17483 
823.824 -7.59402 -0.528669 
811.708 46.8053 0.703832 
940.033 14.4351 3.0257 
866.098 -47.424 -0.320814 
864.105 82.736 0.250864 
813.958 -5.32755 -0.459593 
942.185 34.7904 3.05521 
890.147 -11.4824 19.8841 
892.385 -15.5559 15.2866 
890.098 88.4705 2.75815 
892.277 -31.4466 2.88771 
820.043 22.7221 1.46124 
914.224 -9.34952 3.91079 
834.104 24.5741 7.29348 
881.991 -7.1356 25.382 
892.366 98.4977 2.73713 
893.827 -30.7802 3.02199 
922.084 -1.27418 5.39915 
847.886 0.671746 15.2466 
914.933 -27.5843 -0.038635 
887.975 -25.5918 1.63042 
837.665 72.2726 0.912309 
807.961 6.59682 -2.06764 
826.243 -5.29829 -0.281327 
851.447 30.8243 24.6113 
951.72 16.7853 3.30247 
907.917 6.33318 24.0854 
945.958 -3.69514 3.43714 
891.903 90.8279 1.60935 
894.172 -39.3591 1.28611 
822.016 46.7364 -0.19417 
840.265 -27.3691 -0.387199 
858.431 -25.2021 1.3634 
940.059 -3.20684 1.78237 
868.143 -45.1526 0.0663414 
838.126 6.86689 3.60756 
920.044 0.574612 5.34252 
820.014 43.0146 -0.25549 
894.306 66.072 9.27227 
952.073 4.74206 1.35496 
848.168 76.6945 1.02709 
869.986 -9.48701 23.7491 
918.135 -41.2368 1.03028 
916.1 88.5237 1.26555 
852.052 0.656035 21.8531 
898.813 -13.9714 12.1043 
882.501 -16.6022 20.6856 
886.416 79.0936 0.534539 
888.036 -43.5197 0.177463 
832.123 76.9175 1.25881 
824.285 -21.3659 -0.76287 
884.823 -9.97641 21.5349 
909.826 54.563 11.4361 
905.916 12.3441 25.4611 
888.156 65.0987 13.4175 
860.03 80.7799 0.229023 
862.034 -45.3478 -0.0983257 
671.027 164.684 -89.8013 
874.055 -49.1515 -0.297227 
872.404 80.7603 0.178615 
898.337 -31.6959 -0.569276 
877.999 -49.3069 -0.320974 
842.074 0.896326 7.76082 
910.057 -11.1119 5.25204 
896.305 86.4784 1.44027 
897.995 -43.1458 1.30244 
836.256 28.4879 9.48153 
874.197 75.991 4.71084 
928.06 60.8379 1.91955 
919.691 17.1516 22.6328 
936.221 -13.4063 1.67354 
824.1 -25.402 -2.1083 
911.9 70.7247 1.66627 
880.151 101.022 0.78777 
882.581 -25.3328 1.7132 
921.897 62.7116 4.90048 
906.253 40.6218 23.7468 
859.865 90.9491 -0.247631 
862.259 -39.4726 -0.177514 
885.993 -35.5485 0.327293 
854.107 82.566 0.0368076 
855.911 -47.1927 -0.596145 
829.707 44.8864 0.104232 
898.097 -8.88545 19.5769 
900.07 -19.6153 2.01693 
851.958 60.8462 5.67959 
936.033 70.7277 1.41792 
924.104 -33.1749 1.78067 
818.054 50.7891 1.01505 
846.329 64.2588 4.62472 
879.924 56.6327 23.8665 
912.566 -1.36808 14.0491 
890.166 65.3193 7.63971 
832.036 30.5695 5.62662 
849.891 -4.7387 15.4533 
864.146 -3.24542 24.0617 
912.226 51.0255 13.6874 
923.967 70.8191 1.41455 
924.064 80.555 1.72012 
834.194 -23.4475 -0.47089 
877.826 -29.2994 -0.312634 
855.946 60.8375 9.54177 
848.073 2.42837 21.4066 
886.236 -12.8877 23.5214 
930.354 74.6293 1.627 
812.108 48.7508 -0.582014 
915.76 12.5797 21.9822 
920.239 -11.1719 3.66817 
878.267 -27.4368 3.51287 
849.774 2.66332 21.7797 
850.158 82.5617 -0.146073 
842.381 6.73131 15.6587 
853.929 70.651 1.60014 
838.053 -31.066 -0.340448 
914.203 44.7272 19.9644 
918.049 15.0037 19.9373 
857.996 46.6008 25.0629 
894.298 -33.4013 0.232927 
850.108 62.6937 3.57062 
867.337 78.3672 0.104107 
870.301 -47.0898 -0.0873913 
846.062 50.876 9.65987 
855.649 87.1459 7.72423 
857.977 66.9492 3.75651 
928.29 38.4786 3.72716 
916.464 40.9803 15.3414 
886.067 -4.83681 20.5339 
872.184 80.0891 3.13576 
835.673 35.4895 3.94258 
839.972 -7.12957 3.38994 
907.631 -14.8572 5.19563 
830.002 32.7332 1.87374 
892.797 -31.9957 0.565422 
890.231 88.629 0.290345 
824.292 58.496 -0.196449 
850.15 -4.83454 17.434 
832.026 30.9354 3.69409 
861.881 61.2307 13.6498 
859.997 -35.408 2.76578 
900.263 -35.2483 1.46236 
898.125 72.844 1.89928 
848.798 -3.6296 18.683 
880.01 -15.2825 19.7252 
816.03 -15.1825 -2.26515 
879.919 80.3176 3.71102 
927.945 -15.1961 1.59902 
817.992 22.5228 -0.407336 
896.025 -49.0728 1.26344 
894.068 80.7383 1.62873 
920.002 22.6203 21.2892 
906.174 60.8639 7.44928 
853.472 54.9459 14.0232 
841.821 65.2231 2.73544 
832.194 36.9539 5.35729 
904.038 62.6511 5.78224 
904.055 88.8148 1.39718 
905.906 -41.0816 1.55273 
847.637 49.3472 13.8266 
874.391 74.6943 5.22852 
833.678 24.8748 4.0304 
703.555 -99.3481 -87.3637 
869.788 65.2969 9.78111 
864.079 74.7369 3.2659 
887.966 -21.6428 4.02849 
862.216 56.6531 19.4225 
813.915 46.6167 -0.491509 
910.114 -23.4942 1.75674 
918.657 41.0816 13.8189 
844.104 76.6825 -0.300098 
902.239 48.6927 25.504 
882.082 72.5035 5.37734 
892.093 60.6393 19.5244 
898.093 -19.0515 5.61813 
811.948 -3.15551 -2.2785 
908.237 -11.7298 5.43959 
905.924 48.8176 24.9384 
892.171 66.5891 9.37756 
845.822 44.5476 15.3565 
849.582 12.3517 22.5549 
881.856 90.6879 1.42649 
910.38 36.5247 27.4553 
924.179 82.7812 1.38366 
836.387 10.9275 3.72843 
912.025 -27.2792 1.48843 
914.088 -15.2715 3.51349 
826.21 66.4196 -0.550111 
816.176 0.664686 -0.579718 
945.635 48.5979 3.28757 
929.725 80.6825 1.27618 
873.956 68.6814 7.45144 
914.054 -11.2331 3.94618 
892.447 -24.919 3.55765 
951.982 20.4872 3.62843 
810.619 38.654 -0.361739 
928.043 62.7765 3.55433 
884.079 58.5856 22.0206 
817.948 -15.3914 -2.02921 
839.842 36.7512 11.6061 
858.328 -19.4611 3.52962 
859.948 -11.0281 17.6855 
876.335 59.379 21.9324 
932.137 64.7809 1.84544 
918.555 16.2384 20.3535 
913.556 46.2605 19.3648 
872.089 -7.20624 24.0174 
945.759 -5.34587 3.32675 
880.983 -5.20896 19.8089 
856.109 72.7383 1.75409 
879.962 -41.5381 1.24568 
878.028 80.5205 1.67364 
814.001 32.7799 -0.548735 
909.994 30.6092 25.4302 
896.184 56.7517 21.6768 
946.336 44.8873 1.82582 
852.146 76.8691 1.27654 
895.402 -9.09144 25.1421 
846.139 15.0089 24.817 
908.207 -31.2391 1.59098 
815.831 -1.10884 -1.79825 
944.332 -4.93597 4.88191 
890.812 -5.98925 22.1751 
850.168 76.5213 -0.392588 
808.05 28.809 -0.215043 
858.206 -48.9856 -0.497592 
856.186 80.8614 0.203267 
828.839 33.5791 4.98298 
869.951 -7.62165 23.8344 
872.039 -21.5491 3.49619 
897.757 57.0797 19.4156 
904.036 92.6612 1.59166 
906.113 -37.2924 1.89419 
902.165 46.6764 24.1582 
935.641 -5.11141 3.08027 
915.708 46.2777 15.5816 
942.256 12.7764 3.11699 
888.067 96.6152 1.20399 
890.013 -33.1413 1.48444 
806.172 12.5097 -2.42728 
922.069 50.6879 4.02976 
924.198 -31.1689 1.97067 
924.073 68.8499 4.82007 
888.765 -12.0371 19.7477 
878.45 70.3254 7.3403 
906.119 57.0697 13.5872 
884.273 -39.5774 -0.0329084 
823.908 10.6416 1.19913 
926.196 2.7722 5.30063 
882.212 82.51 1.64975 
934.107 18.8796 3.57364 
933.971 66.6524 1.55055 
912.538 -39.1368 -0.0388737 
827.857 -17.3703 -0.467445 
862.228 -1.05695 24.1073 
904.098 42.9408 25.5435 
873.835 -21.4672 3.45605 
941.947 36.6492 1.86723 
955.736 10.5345 1.35214 
893.84 -15.1329 22.5157 
898.183 52.8254 23.6759 
868.23 -5.2092 23.9492 
935.919 22.6552 3.64049 
810.132 14.575 -2.35797 
893.462 -13.5325 21.3414 
923.646 84.8273 1.37258 
941.827 64.5458 3.14891 
908.033 -13.2818 5.6001 
920.4 6.01317 5.61645 
841.902 -7.38363 3.25993 
871.976 -23.2952 3.335 
940.122 2.36764 4.65979 
933.838 -9.16125 3.25659 
931.887 -19.2374 0.245144 
916.486 -35.4209 0.166016 
906.169 52.8767 19.6761 
892.148 52.6752 25.4198 
891.91 -25.3606 5.00291 
830.052 -21.0916 -0.380081 
894.074 -35.5075 1.50568 
892.118 94.7276 1.52222 
846.214 48.5626 14.0216 
850.459 -19.1685 5.66869 
810.019 22.7487 -2.25235 
908.129 74.6442 3.32769 
899.973 -25.2526 3.6047 
824.189 -1.15363 -0.394183 
863.969 50.6992 23.5818 
843.17 34.0971 18.5288 
893.914 68.6604 5.40772 
816.189 -3.14193 -0.482901 
855.913 -29.3538 1.1466 
930.026 24.5317 5.73405 
924.07 74.8606 1.50155 
820.559 2.52549 0.833611 
826.436 9.22112 2.68012 
843.966 -3.12675 7.45361 
949.984 32.7682 3.34358 
884.01 82.7997 1.35121 
885.883 -43.2142 1.44324 
864.024 60.7868 20.0151 
860.19 62.3558 11.5249 
904.108 74.6581 3.60187 
895.852 -20.9185 5.34012 
846.447 50.142 13.0914 
931.956 -17.1678 3.57112 
874.731 62.7822 14.0627 
882.051 94.8031 -0.106709 
901.956 -48.9947 0.857917 
900.09 80.5964 1.69808 
864.119 72.5897 3.5234 
913.989 -9.03009 5.26302 
841.859 38.9047 13.5868 
935.806 -1.19986 3.25478 
840.171 6.62286 11.1671 
926.103 -31.395 1.76197 
824.158 -11.2103 0.789968 
831.849 58.8024 -0.220763 
893.915 64.2365 13.0779 
852.01 56.8043 9.65633 
954.299 26.5706 1.44411 
947.928 34.7041 3.29102 
933.529 78.2991 1.0617 
897.829 62.481 13.3697 
911.824 4.43472 20.4377 
909.373 26.6547 22.4708 
908.065 40.7287 23.5054 
920.163 37.0832 9.50141 
830.024 36.6753 3.39313 
952.201 12.7777 1.75449 
840.253 44.992 5.7295 
851.889 70.7564 1.56979 
946.189 26.5527 3.04631 
930.283 6.56742 2.9269 
896.394 -39.3017 0.306746 
893.908 86.4876 0.200617 
822.014 40.4481 0.82606 
880.127 -29.2266 3.63381 
844.089 52.6226 5.73748 
902.669 84.4555 0.436953 
904.225 -40.9606 -0.0981244 
890.084 74.6515 3.34892 
848.255 14.5123 24.9005 
894.021 -47.568 0.0828242 
892.202 82.6857 0.331767 
874.141 92.4507 -0.220921 
823.907 4.77446 0.952872 
918.244 62.7839 3.4902 
905.008 -4.12768 17.3057 
933.952 62.7185 2.04453 
820.246 -1.31584 -0.445259 
935.813 70.2095 3.0066 
876.728 95.8066 2.71424 
878.227 -29.2194 3.71687 
826.044 -3.3675 -0.308846 
903.928 90.6729 1.72998 
906.274 -35.2988 1.59498 
863.89 -9.07812 23.1822 
871.829 54.7827 23.3619 
855.971 84.7606 0.0537362 
858.049 -45.2257 -0.545427 
859.679 -41.3713 0.858977 
858.19 82.637 1.21545 
875.679 63.2233 13.5153 
936.297 34.6376 2.38712 
902.295 42.7749 23.8468 
837.984 56.4915 1.7021 
839.99 64.5085 1.41226 
832.131 62.6942 -0.37221 
919.987 -17.3401 1.99899 
863.961 -5.0605 24.0362 
914.741 -1.86837 9.92005 
850.736 52.5598 19.1033 
891.993 96.2841 3.04043 
894.207 -29.4287 3.07599 
886.271 68.9219 5.61779 
888.607 63.2941 12.0729 
899.862 66.5416 5.38535 
860.072 72.7615 3.35902 
850.235 -5.78468 9.2834 
842.339 14.7477 21.499 
828.054 70.6256 -0.470353 
895.423 47.8036 22.1146 
891.904 66.5491 7.50215 
876.557 53.06 23.5623 
864.225 -39.184 -0.00751878 
862.322 86.4612 0.0685686 
862.84 79.0602 0.336096 
838.265 16.7254 13.7876 
863.937 -47.3076 -0.346712 
817.657 2.70903 -1.70731 
894.062 64.4147 11.4472 
877.777 62.7975 15.5635 
915.896 32.8488 23.637 
820.817 -9.95755 0.647721 
920.527 -30.9949 0.0423771 
908.313 -43.2934 0.0215152 
932.087 28.0976 2.31192 
856.255 56.8673 17.829 
885.945 76.6094 3.22762 
826.034 50.4973 1.59665 
872.053 86.8358 1.53009 
873.997 -39.2784 1.27937 
923.399 30.8226 9.40009 
870.297 82.9998 0.151886 
872.455 -39.3132 0.122714 
892.028 64.5442 13.5044 
918.379 32.4789 13.3279 
862.224 -7.32765 23.4378 
876.156 -33.3013 0.189213 
829.757 2.43799 0.175761 
906.375 26.3679 25.7336 
916.109 -5.11843 5.40467 
891.887 68.194 7.18801 
917.803 52.3325 7.19119 
842.176 52.7184 5.66807 
855.929 58.7163 9.70435 
852.235 6.68456 23.6945 
926.097 -13.2995 1.65263 
922.13 64.7814 1.89876 
916.112 64.9643 2.03673 
869.601 -12.3994 25.221 
870.033 -16.9935 16.0338 
832.141 24.6671 5.58144 
849.898 -11.5182 3.71781 
872.254 -45.1418 1.10217 
870.097 88.4965 1.51038 
917.91 6.93285 15.5647 
844.128 56.5953 3.56219 
904.314 37.7141 22.6462 
819.987 68.8844 -0.563463 
899.796 -3.49145 25.2485 
912.082 -43.2948 1.14626 
910.342 82.9351 1.62788 
911.955 76.5544 1.84681 
872.044 -13.5209 21.7529 
936.068 10.6604 1.95703 
900.128 -3.44174 23.9967 
840.47 22.7911 19.5049 
831.836 -23.3357 0.83451 
844.063 -41.3738 -0.448297 
874.02 56.7792 23.9861 
920.16 52.4407 4.13112 
830.096 66.7794 -0.585664 
824.025 26.8308 0.0052382 
812.109 -5.40468 -0.719185 
825.938 40.501 3.948 
900.093 -43.5373 0.202396 
848.092 46.7885 17.793 
947.683 0.586107 3.23658 
853.972 -45.2517 -0.586409 
852.307 84.542 -0.0555028 
928.176 66.4472 3.85102 
922.155 52.6396 3.79497 
858.43 51.3717 24.7452 
828.287 -19.1444 -1.55938 
880.847 -7.62644 21.7871 
886.688 61.5436 18.2309 
905.914 47.0349 25.2387 
922.255 -7.17547 3.91524 
878.309 -23.6478 1.92354 
920.298 -33.2898 0.0901515 
862.307 98.5566 -0.318658 
863.976 -35.2019 0.0944903 
858.471 56.5731 17.6134 
850.05 64.793 3.37392 
813.505 50.7948 0.597355 
871.989 67.6835 4.34906 
849.702 34.7952 25.0215 
900.202 2.53625 23.5663 
848.283 48.767 19.7096 
948.437 46.5443 3.00259 
845.613 15.7775 20.5573 
850.37 -29.1467 -0.275111 
918.106 72.8532 1.59812 
943.727 -19.6367 0.79405 
892.775 -13.8503 17.8702 
901.927 -47.046 1.52817 
900.02 78.6592 1.62973 
897.882 56.4515 23.3863 
925.827 69.0028 1.41152 
876.161 -35.3199 -0.0375689 
854.107 68.5957 1.71779 
882.166 76.7276 3.60802 
863.879 -9.67847 22.0125 
860.117 48.6351 25.0366 
821.898 -5.20279 -0.612922 
831.932 10.58 1.74566 
940.285 2.73448 1.64998 
925.898 0.740599 5.33148 
862.15 -9.33994 21.7722 
848.185 -27.4499 -0.220458 
918.032 -34.8045 0.337286 
936.254 59.5645 4.95611 
822.091 30.7183 -0.224306 
894.483 86.7636 1.55295 
896.096 -39.2263 1.38754 
829.96 10.3814 1.76778 
894.031 72.8244 5.65563 
880.081 94.8129 1.6743 
882.028 -35.0204 1.21752 
908.198 -3.65474 19.7715 
830.458 -15.3138 0.812002 
895.822 46.9015 24.0455 
861.274 67.1087 4.26027 
851.825 -3.4473 19.7168 
840.009 22.3459 17.4945 
827.853 24.5719 1.69656 
868.395 -27.0497 1.6331 
865.91 80.8242 1.29043 
836.22 72.6647 -0.073805 
919.98 43.2146 4.18774 
816.022 -9.32554 -0.638991 
898.059 88.62 1.68029 
863.878 94.6159 -0.407445 
866.175 -35.2799 0.105564 
854.003 92.5053 0.859989 
855.886 -41.3594 0.873625 
942.241 -5.52228 3.60523 
912.221 80.7157 3.72105 
861.981 -33.2995 -0.125013 
859.9 92.8435 -0.471278 
859.306 2.81192 23.9345 
900.111 -37.2694 1.51596 
897.909 74.8727 1.96342 
867.915 67.0343 5.68562 
837.836 0.728264 2.22984 
932.029 -11.1733 1.73227 
843.961 20.7024 21.8103 
833.926 68.7937 -0.206513 
918.009 40.7798 9.91758 
868.013 -47.1411 -0.188219 
824.203 -9.22411 -0.433586 
816.273 50.5888 0.785918 
886.898 56.1694 22.3138 
918.014 42.3866 13.7031 
904.971 48.733 22.0801 
943.83 60.6667 1.44838 
853.965 -39.0692 1.28554 
852.297 86.8712 1.26764 
930.055 -17.1466 1.66548 
886.488 -15.0933 17.9687 
876.064 -7.10278 23.7065 
834.158 30.6199 7.41053 
922.319 26.7291 11.6656 
880.161 56.7698 25.3992 
940.104 64.4465 1.45642 
860.177 -31.1988 0.0750043 
942.146 20.4145 3.19593 
848.468 24.9408 25.3746 
846.092 24.7881 23.4435 
832.218 -19.4252 0.802246 
835.95 48.7655 1.80741 
846.703 51.8233 12.0167 
849.925 26.8847 23.7311 
920.194 -11.5078 1.67318 
895.888 -43.5544 0.116491 
902.06 44.9068 23.8438 
873.954 -35.1655 1.58611 
871.972 90.7799 1.49481 
913.97 -17.2891 3.26419 
828.18 6.69201 1.60056 
933.941 -29.1668 1.10178 
826.193 40.5302 1.46216 
873.985 96.7051 1.53265 
876.06 -31.0807 1.42495 
842.238 46.8421 9.50517 
852.589 49.7743 23.2272 
938.169 62.7057 1.76174 
884.116 72.8134 3.90711 
916.039 10.4433 23.2655 
900.158 -21.545 3.57575 
934.209 14.8512 2.20214 
924.085 -31.2567 2.8487 
894.069 70.801 3.79378 
937.836 66.9128 1.53723 
905.979 64.5651 5.37305 
863.876 52.9062 21.8348 
852.065 -35.2464 1.52217 
918.153 52.8972 5.36033 
902.103 54.8986 19.6473 
903.854 -15.5165 3.71686 
837.725 42.875 5.61939 
920.324 -33.229 1.55177 
907.938 -19.0426 3.3552 
895.962 -10.9448 23.4058 
814.162 10.6421 -0.30988 
886.018 63.0864 15.8576 
908.159 64.8527 3.75292 
956.089 18.8627 1.21366 
908.134 10.6009 24.3218 
857.852 50.2634 23.7789 
825.834 20.6524 0.0419513 
862.051 -21.741 2.2134 
952.129 28.9334 3.47203 
907.137 -8.4715 17.6818 
826.078 36.6722 1.49317 
806.555 30.8324 -0.358915 
916.27 84.7853 1.92457 
829.727 2.54489 1.22766 
837.797 34.6422 6.04507 
896.049 52.732 23.624 
861.973 -35.4311 0.0465195 
859.882 95.2643 -0.278552 
860.213 -3.34096 23.9264 
874.25 76.7569 3.47724 
833.922 22.8577 5.66506 
932.174 50.741 2.16608 
940.268 62.6313 1.77643 
906.05 44.8267 25.1994 
836.066 -9.22567 3.53809 
870.295 -41.5956 0.296486 
867.745 88.7456 -0.247329 
890.256 -25.4448 3.5845 
923.935 -29.3002 2.78452 
954.182 0.387766 0.887572 
901.871 70.4965 3.71147 
921.611 80.7016 2.99093 
944.249 4.60133 2.03098 
819.655 61.015 -1.74593 
836.185 8.71402 3.25869 
880.049 61.0429 19.7186 
815.326 48.4643 -2.03878 
904.233 6.43994 23.9665 
876.09 72.7868 3.89259 
895.387 58.5406 22.9535 
911.912 64.6789 5.30094 
889.95 63.4786 11.6732 
873.73 68.1417 9.03937 
911.531 38.679 26.651 
858.225 78.7103 -0.211748 
860.105 -37.1547 0.0805304 
918.38 44.8918 7.59234 
923.251 27.9577 11.6923 
840.923 26.3366 20.7735 
820.333 56.9829 -0.270177 
924.085 60.893 2.08909 
852.072 48.5998 23.0526 
825.854 64.6198 1.18578 
899.709 -17.2186 7.36377 
850.09 42.5233 23.3163 
829.693 18.3998 2.01153 
875.943 -18.3018 14.6061 
852.042 54.7842 11.5229 
920.294 38.8431 5.5422 
862.172 -11.1008 21.7926 
830.158 56.5823 -0.2357 
866.236 -11.338 21.8256 
911.987 -15.2746 3.51411 
906.301 6.34661 24.1784 
906.255 42.4045 23.8258 
888.401 -43.5757 3.24278 
885.927 78.3431 2.79722 
937.818 -7.32122 1.76521 
881.982 51.4953 24.7333 
926.141 28.9665 5.61154 
868.109 61.1203 17.6866 
933.99 -3.4407 1.49062 
898.298 -27.0673 3.36143 
920.158 82.8228 1.8664 
810.028 36.8524 -2.16259 
888.027 -47.2772 1.44812 
885.931 82.4437 1.35179 
897.498 -13.334 15.6488 
905.58 60.1092 9.38056 
906.4 -11.1374 5.89291 
841.802 42.9053 9.58627 
951.726 0.649218 1.30694 
934.231 60.7044 2.84251 
828.286 28.6659 0.371772 
896.167 -13.0581 17.4835 
856.342 -37.407 1.27701 
853.713 88.5458 1.20496 
838.128 24.6328 13.6636 
832.197 -32.9248 -0.545309 
842.081 78.8017 -0.61204 
828.152 66.6431 -0.591637 
838.333 38.4947 5.66704 
928.132 78.6225 1.46384 
862.796 -49.3909 0.609944 
860.159 76.8527 1.37227 
908.167 -29.6807 0.396342 
952.163 24.8193 1.74745 
809.978 -5.21503 -2.46306 
904.689 -3.61561 19.1919 
842.259 48.632 7.61004 
835.9 44.5514 3.52654 
870.206 -43.3718 1.27733 
867.979 82.8098 1.07666 
856.241 -17.3513 3.84271 
870.195 -3.37192 23.5745 
910.07 -11.5361 4.25364 
898.036 -43.8834 0.180203 
895.585 86.467 0.213518 
926.009 58.8092 3.28281 
911.572 54.6255 11.2899 
860.588 -36.5387 2.68538 
858.466 79.0837 3.03781 
830.008 26.6316 3.766 
887.683 61.7615 22.7646 
921.613 -25.2885 0.581728 
944.232 -3.57518 1.79323 
887.471 99.2959 2.77126 
889.713 -27.3753 3.26162 
835.806 -13.7057 2.59437 
819.91 24.7742 -0.198832 
836.252 58.7395 0.165801 
823.591 19.609 4.68184 
824.102 20.5739 5.28998 
852.24 50.6878 21.6613 
819.952 -3.25707 -0.56876 
922.216 83.0406 1.60668 
871.942 -22.967 7.62465 
860.105 62.7081 9.86368 
944.045 22.6908 1.81665 
926.233 24.619 5.89067 
869.995 -43.2421 0.152708 
867.965 82.6574 0.0996527 
955.395 5.21034 0.892762 
845.703 -1.29569 11.2796 
900.315 -9.49117 15.675 
913.711 -10.9402 5.1553 
856.261 -37.2711 -0.318424 
853.912 88.5589 -0.194912 
900.35 -23.5168 2.00481 
865.932 72.6455 3.43814 
868.077 54.5176 23.8457 
900.324 -7.75975 19.1596 
914.285 47.097 11.8733 
836.252 -29.5416 -1.83822 
890.717 -3.77856 20.0401 
906.311 -43.0645 0.264357 
914.169 56.4704 7.04721 
918.412 2.59728 7.8177 
885.984 90.7167 1.37505 
888.329 -39.3895 1.22327 
917.836 56.8307 5.56148 
944.227 12.7726 1.81864 
918.091 84.5575 1.79921 
844.041 1.04716 9.31933 
921.8 -38.8149 1.1464 
920.034 86.9291 1.33147 
859.758 60.6156 7.65216 
876.263 -13.1475 23.5419 
844.435 22.6844 23.5626 
916.269 -33.087 1.62024 
666.112 -115.675 -87.1698 
899.851 -33.5481 0.126384 
876.724 74.636 5.16652 
853.963 38.8501 23.9174 
844.123 -9.46059 7.29646 
838.117 50.1457 6.93678 
903.906 8.75314 25.0448 
943.911 24.7724 3.37338 
932.315 30.481 3.84485 
845.85 -39.6326 -1.86827 
874.149 78.4584 3.52998 
874.027 63.9764 21.3341 
931.896 -7.22 1.65541 
854.04 -5.17166 19.8276 
906.07 40.7612 25.2996 
944.15 30.9304 3.04885 
926.292 -7.50702 1.94171 
832.299 0.66406 0.271341 
880.113 66.5958 11.4852 
906.409 22.754 25.6494 
849.635 -1.28496 14.9629 
832.393 34.6872 5.27645 
896.507 -29.8103 0.19903 
953.989 22.6562 1.44005 
850.338 46.7237 23.0183 
895.816 -17.7107 6.12672 
876.102 -47.3887 0.0123752 
874.088 81.0158 0.201552 
853.995 64.8324 3.75362 
951.748 2.68448 2.80219 
871.179 78.6907 0.000730003 
874.084 -47.2274 0.0396278 
861.845 90.4841 -0.213518 
864.007 -43.2701 0.0340809 
840.505 5.31716 12.6617 
856.156 74.8144 1.52602 
913.912 50.3995 11.4307 
885.999 66.5023 11.5638 
915.485 54.2617 8.11207 
877.83 -45.3639 -0.000713751 
876.225 80.7701 0.164901 
865.827 56.8762 20.156 
898.111 -3.05755 23.844 
872.052 77.9918 3.16072 
942.02 -9.0731 1.78458 
839.055 2.81861 4.34219 
856.171 68.236 5.44366 
848.127 54.9981 6.08736 
831.931 -11.4808 -0.0373387 
807.979 24.8255 -2.34386 
850.22 50.7404 19.645 
872.009 76.8046 3.39919 
941.811 -11.2177 1.60513 
946.219 34.8613 3.21501 
930.161 -13.0928 1.62781 
874.102 65.4485 10.1201 
832.187 66.6322 -0.147452 
920.069 54.6564 3.95829 
866.264 -11.1685 23.1359 
930.144 30.7271 3.79597 
845.94 82.6121 -0.0870197 
848.152 -43.4029 -0.551338 
879.865 63.2641 15.7897 
846.267 20.0628 24.8765 
830.131 30.6508 3.83903 
873.981 -39.3182 0.13397 
872.494 86.9414 0.0877426 
842.343 70.8544 0.861118 
866.128 -21.3072 1.8825 
844.594 50.6035 10.6743 
848.124 70.7213 1.46336 
935.956 34.9277 3.33316 
846.212 8.99119 23.296 
816.803 30.8484 1.15091 
929.9 8.72437 5.49045 
914.368 58.9207 4.02551 
836.278 6.21188 2.36008 
885.616 -43.0193 2.9893 
949.954 48.6753 1.72231 
848.191 6.82541 23.5053 
870.121 -37.361 0.152649 
868.153 92.8364 -0.200096 
881.987 -37.3753 0.0258387 
880.145 75.1602 1.76922 
940.025 52.7018 3.1269 
814.178 30.5107 -0.429217 
932.117 20.6739 3.55269 
945.997 8.60691 1.9113 
906.209 -13.6192 3.89029 
921.712 35.0144 11.4044 
931.93 68.7223 3.67868 
915.613 62.7747 5.45845 
860.115 64.1478 9.51293 
939.974 8.66358 3.11305 
872.452 -41.5131 0.0332764 
870.072 85.0329 -0.212272 
841.886 44.7646 9.47313 
924.444 26.8363 5.70441 
813.943 40.4314 -0.254528 
865.829 -25.3568 1.57634 
845.829 -10.9832 3.26421 
846.131 56.8235 3.95266 
903.472 44.6049 26.8738 
915.873 14.6146 23.6956 
902.068 62.8748 5.78959 
897.996 -11.2202 17.9989 
869.908 54.9206 23.5345 
849.948 56.7158 7.7543 
904.371 -21.7126 4.90534 
926.134 20.9321 5.63333 
886.017 -21.5254 3.5679 
921.882 16.8473 13.8241 
910.971 -8.12945 5.0867 
884.322 -25.4148 2.11855 
846.008 -5.14089 7.21976 
856.093 52.4874 23.0328 
878.169 -47.2826 0.0137433 
875.783 82.5228 0.18854 
875.984 64.9099 15.6371 
896.061 59.1671 17.5756 
856.361 82.8808 0.0806499 
858.125 -43.1168 -0.149107 
874.09 58.7278 23.3637 
839.911 16.5218 15.6587 
946.027 24.5351 3.30679 
945.799 34.8199 1.75434 
921.44 36.8346 11.8071 
904.166 57.0305 15.8463 
864.723 -20.061 2.33686 
910.173 36.7768 25.1078 
820.323 66.6502 -0.79849 
910.657 74.9169 3.07105 
921.879 42.8747 5.68572 
918.13 58.5319 5.17803 
922.113 30.8507 9.83282 
891.814 -36.6972 0.144306 
910.135 -5.63572 11.4666 
913.543 63.2433 7.1167 
917.996 0.730848 7.53031 
923.589 11.5523 7.80875 
840.174 48.8185 7.18489 
924.035 -31.4505 0.471054 
888.139 82.5359 1.43056 
890.002 -43.3882 1.36048 
860.024 64.8046 7.59127 
940 20.5277 3.30489 
841.99 64.4883 1.48643 
856.274 78.6421 -0.00393675 
858.008 -47.3275 -0.566141 
833.824 63.0169 0.992232 
873.847 -43.4924 0.186952 
871.976 82.5747 0.0910768 
820.004 54.9546 -0.266345 
942.422 2.64023 2.06349 
902.108 82.9886 2.67206 
903.579 -39.5822 2.66712 
915.888 10.9021 21.7349 
910.318 -3.41117 14.0106 
926.051 52.8301 3.57866 
919.842 50.7093 5.32578 
830.186 60.3415 -1.49638 
841.872 72.6696 -0.00466823 
844.065 60.7566 2.07379 
905.936 58.6952 9.37906 
852.157 -37.105 1.18832 
924.264 52.6979 3.26896 
870.349 70.6898 5.24415 
850.235 72.7612 1.60027 
836.007 -1.22604 1.99202 
854.114 52.8197 19.5323 
865.937 68.8007 5.28066 
932.166 18.8521 5.23401 
832.066 -15.2345 -0.212642 
861.839 46.5499 23.8644 
833.962 -7.68236 0.157714 
870.249 -35.0485 1.31435 
867.881 90.806 1.46552 
850.011 0.862077 23.0346 
882.002 -48.993 1.02413 
880.17 76.887 1.74048 
927.779 -19.3542 1.5963 
865.987 -22.8999 3.60179 
941.99 22.6561 3.09003 
832.069 46.649 1.76478 
842.187 62.6445 1.62001 
857.957 70.7949 1.93339 
922.294 -33.6075 0.186109 
888.24 -45.5757 0.145324 
886.471 80.9285 0.153568 
931.819 30.7238 5.28831 
819.96 2.81241 -0.277344 
866.27 60.5394 17.676 
925.908 12.8195 5.79416 
898.106 -1.52855 24.0863 
853.99 56.6937 13.6393 
922.398 32.9394 7.73191 
948.012 32.665 3.26076 
860.331 0.756071 24.0746 
923.831 42.7853 5.40008 
878.033 -13.172 23.5555 
891.718 62.7399 17.3931 
928.14 52.0761 1.94196 
819.94 -9.33574 -0.649694 
909.447 -16.9728 2.52217 
868.115 64.739 7.49836 
925.683 40.5888 5.35133 
865.877 66.5763 4.13723 
911.669 2.58572 21.4871 
931.224 18.8594 1.87577 
934.093 26.652 5.41482 
933.944 60.7298 1.97618 
889.961 90.6312 1.58195 
892.075 -33.1619 1.3405 
844.326 -17.193 0.253805 
910.199 54.7432 9.46155 
955.818 32.6558 1.22085 
949.852 26.5444 3.66735 
804.054 22.5565 -2.32042 
869.271 79.4285 0.208953 
872.184 -51.119 -0.632349 
914.732 8.48452 20.3243 
851.61 -18.9614 5.21167 
934.008 49.2126 1.9909 
884.163 72.8444 5.20095 
918.866 26.7958 15.8074 
873.894 98.4979 1.31037 
876.076 -33.1838 1.61666 
822.015 20.5541 1.31609 
868.085 -49.2621 -0.621494 
848.155 64.5121 3.46991 
921.95 22.5073 13.4983 
902.241 -13.9884 7.8066 
853.967 -41.2048 -0.356063 
851.995 88.7265 -0.270243 
950.126 12.5945 1.76046 
853.996 40.5697 22.3937 
864.071 92.8063 -0.250259 
866.068 -33.2581 -0.0300371 
839.979 47.0369 3.80734 
921.571 8.73585 9.63195 
842.024 10.6048 19.4528 
