ply
format ascii 1.0
comment Created by CloudCompare v2.11 alpha (Anoia)
comment Created 8/28/19 10:48 PM
obj_info Generated by CloudCompare!
element vertex 1492
property float x
property float y
property float z
end_header
0.043589 -0.0134477 0.00780875 
-0.039826 0.0238185 0.00718489 
0.044035 -0.0564505 0.000471054 
0.00813898 0.0575359 0.00143056 
0.010002 -0.0683882 0.00136048 
-0.019976 0.0398046 0.00759127 
0.06 -0.0044723 0.00330489 
-0.03801 0.0394883 0.00148643 
-0.023726 0.0536421 -3.93675e-06 
-0.021992 -0.0723275 -0.000566141 
-0.046176 0.0380169 0.000992232 
-0.00615302 -0.0684924 0.000186952 
-0.00802399 0.0575747 9.10768e-05 
-0.059996 0.0299546 -0.000266345 
0.062422 -0.0223598 0.00206349 
0.022108 0.0579886 0.00267206 
0.023579 -0.0645822 0.00266712 
0.035888 -0.0140979 0.0217349 
0.030318 -0.0284112 0.0140106 
0.046051 0.0278301 0.00357866 
0.039842 0.0257093 0.00532578 
-0.049814 0.0353415 -0.00149638 
-0.038128 0.0476696 -4.66823e-06 
-0.035935 0.0357566 0.00207379 
0.025936 0.0336952 0.00937906 
-0.027843 -0.062105 0.00118832 
0.044264 0.0276979 0.00326896 
-0.009651 0.0456898 0.00524415 
-0.029765 0.0477612 0.00160027 
-0.043993 -0.026226 0.00199202 
-0.025886 0.0278197 0.0195323 
-0.014063 0.0438007 0.00528066 
0.052166 -0.0061479 0.00523401 
-0.047934 -0.0402345 -0.000212642 
-0.018161 0.0215499 0.0238644 
-0.046038 -0.0326824 0.000157714 
-0.00975098 -0.0600485 0.00131435 
-0.012119 0.065806 0.00146552 
-0.029989 -0.0241379 0.0230346 
0.00200201 -0.073993 0.00102413 
0.000169983 0.051887 0.00174048 
0.047779 -0.0443542 0.0015963 
-0.014013 -0.0478999 0.00360179 
0.06199 -0.0023439 0.00309003 
-0.047931 0.021649 0.00176478 
-0.037813 0.0376445 0.00162001 
-0.022043 0.0457949 0.00193339 
0.042294 -0.0586075 0.000186109 
0.00823999 -0.0705757 0.000145324 
0.00647101 0.0559285 0.000153568 
0.051819 0.0057238 0.00528831 
-0.06004 -0.0221876 -0.000277344 
-0.01373 0.0355394 0.017676 
0.045908 -0.0121805 0.00579416 
0.018106 -0.0265285 0.0240863 
-0.02601 0.0316937 0.0136393 
0.042398 0.0079394 0.00773191 
0.068012 0.007665 0.00326076 
-0.019669 -0.0242439 0.0240746 
0.043831 0.0177853 0.00540008 
-0.00196698 -0.038172 0.0235555 
0.011718 0.0377399 0.0173931 
0.04814 0.0270761 0.00194196 
-0.06006 -0.0343357 -0.000649694 
0.029447 -0.0419728 0.00252217 
-0.011885 0.039739 0.00749836 
0.045683 0.0155888 0.00535133 
-0.014123 0.0415763 0.00413723 
0.031669 -0.0224143 0.0214871 
0.051224 -0.0061406 0.00187577 
0.054093 0.001652 0.00541482 
0.053944 0.0357298 0.00197618 
0.009961 0.0656312 0.00158195 
0.012075 -0.0581619 0.0013405 
-0.035674 -0.042193 0.000253805 
0.030199 0.0297432 0.00946155 
0.075818 0.0076558 0.00122085 
0.069852 0.0015444 0.00366735 
-0.075946 -0.0024435 -0.00232042 
-0.010729 0.0544285 0.000208953 
-0.00781598 -0.076119 -0.000632349 
0.034732 -0.0165155 0.0203243 
-0.02839 -0.0439614 0.00521167 
0.054008 0.0242126 0.0019909 
0.00416302 0.0478444 0.00520095 
0.038866 0.0017958 0.0158074 
-0.00610602 0.0734979 0.00131037 
-0.00392401 -0.0581838 0.00161666 
-0.057985 -0.0044459 0.00131609 
-0.011915 -0.0742621 -0.000621494 
-0.031845 0.0395121 0.00346991 
0.04195 -0.0024927 0.0134983 
0.022241 -0.0389884 0.0078066 
-0.026033 -0.0662048 -0.000356063 
-0.028005 0.0637265 -0.000270243 
0.070126 -0.0124055 0.00176046 
-0.026004 0.0155697 0.0223937 
-0.015929 0.0678063 -0.000250259 
-0.013932 -0.0582581 -3.00371e-05 
-0.040021 0.0220369 0.00380734 
0.041571 -0.0162641 0.00963195 
-0.037976 -0.0143952 0.0194528 
-0.035804 0.049584 -0.000163215 
0.035515 0.0055738 0.0252048 
-0.029998 -0.0204321 0.0233815 
0.061971 -0.0381933 0.00149708 
0.06813 0.0036481 0.00201942 
-0.00797803 -0.0704898 0.00021931 
-0.00994098 0.0640087 -0.000153652 
-0.067683 0.0136674 -0.000453202 
0.031941 -0.0106733 0.0238281 
0.010105 -0.0399517 0.0232222 
0.022716 -0.0291088 0.0211019 
0.022152 -0.0702245 0.00132982 
0.020153 0.0596031 0.00161016 
-0.022153 0.0338722 0.0134316 
0.012176 -0.0463097 0.00544105 
-0.026136 0.0555395 8.98256e-05 
-0.023874 -0.0701052 -0.000456564 
-0.012275 -0.0400482 0.0209146 
0.02403 -0.0224084 0.0238233 
0.034229 0.0135614 0.0215841 
0.037975 -0.000374701 0.0215729 
-0.023929 -0.0244024 0.0238647 
-0.033236 -0.0392984 0.00557308 
0.035655 0.0233491 0.0114535 
-0.012227 -0.0481217 0.007317 
-0.04612 -0.034701 -8.67408e-05 
-0.026098 -0.0443199 0.00339445 
-0.00617102 -0.040734 0.0159428 
0.041758 -0.0323275 0.00512071 
-0.067716 0.0116998 -0.000433672 
-0.010247 0.0377311 0.015569 
0.034161 -0.0085807 0.023733 
0.00407202 0.0637768 -5.11649e-05 
0.00640503 -0.0664386 6.61886e-05 
0.00214697 0.0594799 0.00148975 
-0.012014 0.0337637 0.0217754 
-0.044067 0.0421922 0.00115988 
-0.01575 0.0558122 0.000269626 
-0.013784 -0.0704022 3.48112e-05 
-0.00796899 0.0637835 2.03337e-06 
-0.00550299 -0.0663865 4.41662e-05 
0.019717 0.0394737 0.00738131 
0.00798999 0.0277622 0.0271916 
-0.033661 -0.0123924 0.0235538 
0.029936 0.0557907 0.00155261 
0.032084 -0.066189 0.00145271 
0.066116 -0.0324023 0.00147525 
0.038023 0.0335728 0.00366056 
-0.073557 -0.0086592 -0.000989922 
0.02611 0.0456218 0.00555977 
0.044366 0.0286697 0.0024456 
0.03009 0.0234412 0.0218302 
-0.025778 -0.0544578 -3.37797e-05 
-0.015685 0.0340794 0.0179644 
-0.00178601 -0.0382982 0.0220172 
0.044179 0.017213 0.00697638 
-0.056036 -0.0364504 -0.000580293 
-0.023892 -0.0682349 -0.000305324 
-0.025787 0.0535996 5.30956e-05 
0.019867 -0.0361582 0.0155873 
0.030065 -0.052136 0.00139194 
-0.043892 0.0316251 0.0014913 
-0.028185 0.0135058 0.0250479 
0.029967 -0.0143058 0.0253712 
0.074052 -0.0083113 0.00155176 
0.070373 -0.0024444 0.00173404 
-0.015892 0.0275964 0.0236371 
0.032116 0.041867 0.00364236 
-0.019735 0.0317143 0.0179189 
-0.009763 -0.0380201 0.0232052 
-0.011993 -0.0380356 0.0233336 
0.004078 0.0357617 0.0199304 
0.048191 -0.0141095 0.00565087 
-0.025935 -0.0524016 0.00129775 
-0.013716 -0.0484189 0.000237408 
0.008185 -0.0701811 0.00140497 
0.00620398 0.0554893 0.00149816 
-0.027838 0.0152783 0.0251213 
-0.048436 -0.0451164 -0.0015821 
0.052185 -0.0262329 0.00171802 
0.018075 -0.0743492 0.00110408 
0.016314 0.0518378 0.00184919 
-0.011843 -0.0344344 0.0235307 
0.030129 0.0536642 0.00189788 
-0.029244 0.0291341 0.0153372 
-0.00151099 -0.0300295 0.0199495 
0.00200598 -0.0757323 0.000742461 
0.000112 0.0539667 0.00129022 
0.047987 -0.0421966 0.00169435 
-0.00718701 0.037498 0.0141651 
-0.028963 -0.0331647 0.00735849 
0.068137 -0.0124074 0.00146941 
-0.011934 0.0278507 0.0239366 
-0.05407 0.0396242 -0.000566148 
-0.16944 -0.154115 -0.0859666 
-0.069894 0.0153018 -0.000493489 
0.01003 -0.0404727 0.0179402 
0.012148 -0.0282194 0.0254626 
0.050018 0.0233447 0.00215716 
0.063932 -0.0303423 0.00189109 
0.050252 -0.0144889 0.00722777 
-0.075801 0.002156 -0.000838095 
-0.019925 0.0634447 -1.70515e-05 
-0.017544 -0.0622691 6.11785e-05 
-0.076051 0.0076178 -0.00215394 
0.031642 0.0138197 0.0249743 
-0.168973 -0.149706 -0.0862441 
-0.03821 0.0454972 -0.000183036 
0.063866 0.0336917 0.00339352 
0.024032 -0.0721977 0.00112263 
0.022082 0.0498039 0.00168704 
-0.015818 -0.052251 -0.000138944 
-0.020381 -0.0204914 0.0239773 
0.060212 0.009917 0.00190171 
-0.065602 0.0236404 -0.000467103 
-0.045516 0.0538172 0.00138815 
0.034327 -0.0059935 0.0221525 
-0.024036 -0.0320008 0.0193304 
-0.042069 0.0277372 0.00346503 
-0.032127 0.0381278 0.00181841 
0.038173 0.0501998 0.0015131 
0.000310974 -0.0682661 8.2874e-05 
-0.00191199 0.0575149 0.000211369 
0.036366 0.0257781 0.00576088 
0.00466699 -0.0301421 0.0206073 
-0.021964 -0.0543489 0.000207356 
0.052905 0.0058405 0.00218301 
0.05806 0.0096161 0.00302586 
-0.01989 -0.0429102 0.00384224 
0.070284 0.0036502 0.0018692 
-0.071461 -0.0302353 -0.00244995 
-0.046149 0.0456905 -0.000209724 
-0.048042 0.0516889 -0.000859913 
-0.015485 0.0371774 0.00603469 
-0.055897 -0.0305855 0.00128764 
0.055988 -0.0243746 0.00170731 
0.034397 0.0075878 0.0216519 
0.038102 0.0017618 0.0217085 
-0.021713 0.0616855 -7.47601e-05 
-0.019925 -0.0702442 -0.000289216 
-0.009979 -0.047846 0.00369987 
0.00217603 -0.0486183 0.00353681 
0.024177 0.0435936 0.00584019 
-0.04989 -0.0203523 0.00128969 
0.056247 -0.0283652 0.00322227 
0.016019 -0.0503378 0.0038843 
-0.059583 0.0388885 0.00131651 
-0.050025 0.0156393 0.00162681 
-0.051957 0.0057323 0.00368134 
-4.30298e-05 0.0497027 0.00360883 
-0.022049 0.0415991 0.00547378 
0.02417 -0.0562449 0.00137277 
0.021913 0.0656253 0.00151554 
-0.010074 0.0413924 0.00927539 
-0.025932 -0.0185989 0.0238642 
0.029893 0.0691509 0.00106056 
0.031958 -0.0641865 0.0016223 
0.071875 0.003692 0.0017215 
0.036128 0.0153352 0.0171694 
-0.055757 -0.0102023 -0.000157888 
0.069975 0.0176704 0.00164557 
-0.045652 0.007755 0.00764202 
-0.033873 0.0097112 0.0233681 
0.04162 0.0017765 0.0151825 
-0.029959 -0.0242411 0.0217077 
-0.04216 0.0459066 0.000986952 
0.020156 -0.0702576 0.00127559 
0.018058 0.0575778 0.00176537 
-0.062031 -0.0124744 -0.000417894 
0.050272 0.0297718 0.00197114 
0.037908 -0.0004272 0.0235481 
0.033748 0.0136878 0.0233283 
0.02401 -0.0224419 0.0253329 
0.012246 -0.0709896 0.00262634 
0.010107 0.0460618 0.00409953 
0.00405499 -0.0583221 0.00158806 
0.021994 -0.0604986 0.000359862 
0.028151 -0.0226764 0.0236789 
0.019904 -0.0379769 0.0133979 
-0.011929 0.0434414 0.00678916 
0.01227 0.0655586 0.000180861 
0.014554 -0.0644385 0.000471635 
0.065954 -0.0284109 0.00178066 
-0.04589 -0.012179 0.00542134 
0.040176 0.0099025 0.0155952 
-0.061156 -0.0454121 -0.000961529 
0.034066 0.0599995 0.00170063 
0.038198 -0.0501963 0.0015644 
0.048045 0.0319351 0.00352932 
0.062055 -0.032211 0.00187006 
-0.016238 -0.0762301 -0.000873543 
-0.017982 0.0576277 0.000157555 
0.002086 -0.0721157 -0.000176861 
-0.000135986 0.05772 5.6024e-05 
-0.032051 -0.0286753 0.0118015 
-0.00604999 -0.0483295 0.00338612 
0.053867 -0.0480581 0.001468 
-0.017898 -0.0451039 0.00248959 
-0.03822 0.0076463 0.0179368 
-0.052044 -0.000522699 0.00350306 
-0.071925 0.0093991 -0.000434024 
0.042245 -0.0181479 0.00392545 
0.011835 -0.0481649 0.00369535 
0.051778 -0.0217656 0.00528945 
-0.061744 -0.0042997 -0.000713266 
0.016212 -0.0723706 0.00124254 
0.014063 0.0536579 0.00184574 
-0.039777 0.0498361 -4.47318e-05 
-0.03615 0.024 0.00803463 
-0.053927 -0.016686 0.00178005 
0.022115 -0.0586801 0.000189267 
0.011704 -0.0298972 0.0217232 
0.00669 0.0688512 0.0029153 
0.00806702 -0.0523479 0.00377837 
-0.033923 -0.0283222 0.00921484 
-0.047962 -0.0321956 0.00147811 
-0.00654303 -0.0744806 0.000944774 
-0.00782599 0.055757 0.00147448 
0.031959 -0.0024352 0.0252541 
0.000153992 -0.0795983 -0.00124591 
-0.00239301 0.0535584 0.000155605 
0.025641 -0.0720475 0.00131607 
0.024141 0.0536193 0.00148731 
0.035899 -0.0358452 0.00490681 
0.00412299 -0.0505861 0.00550586 
0.031956 -0.0542064 0.00148645 
0.00412799 0.045941 0.00563806 
-0.016003 0.0336845 0.0195721 
0.037966 0.0213823 0.00776397 
0.024326 -0.0365174 0.0074124 
-0.011831 -0.0325223 0.0240179 
0.008125 0.0636059 0.00142974 
0.01017 -0.0660291 0.00134324 
-0.073983 -0.0169106 -0.000898219 
-0.012062 0.0505583 0.000540792 
-0.00982001 -0.0761906 -0.000685498 
0.033997 -0.0082344 0.0251132 
-0.00801801 0.0419014 0.00790707 
0.01601 -0.0463631 0.00380601 
0.014033 -0.0461861 0.00543611 
-0.061444 -0.0143122 -0.00168103 
0.049836 0.0276861 0.00316707 
0.07408 0.0075852 0.00147822 
0.024238 0.0714251 0.000709904 
0.025983 -0.058311 0.00154942 
-0.015506 -0.0740079 0.000663826 
-0.017963 0.0555034 0.00127312 
-0.019921 0.0575021 -7.34842e-05 
-0.018076 -0.072428 -0.000309435 
0.024462 0.031714 0.0135083 
-0.00376898 -0.0402973 0.0199441 
0.022368 0.0401523 0.00372095 
0.04189 -0.0299904 0.00377044 
-0.023833 -0.0282227 0.023397 
-0.065833 0.0297146 -0.000666048 
0.019933 -0.0721603 0.00159103 
0.018077 0.0596156 0.001601 
-0.046026 -0.0443352 -0.000311083 
0.00734399 -0.0421028 0.0180617 
-0.030949 -0.0617435 -0.00155338 
-0.055873 0.0115373 -0.000145471 
0.071999 0.0061477 0.00351697 
0.033756 0.0653306 0.00118443 
0.038021 -0.0520923 0.00154079 
-0.053821 0.0334107 -0.000314975 
0.036335 -0.0323889 0.00395996 
0.068098 -0.0304516 0.00150452 
0.061865 -0.0161854 0.00194129 
-0.042105 0.0196566 0.00542505 
0.060413 0.0015507 0.00182698 
-0.040589 -0.012301 0.0119146 
-0.040033 0.0356258 0.00166983 
0.00205298 0.0418083 0.0113258 
0.068097 0.0218123 0.00153835 
0.010424 0.075847 0.00163085 
0.012217 -0.0683168 0.00114057 
-0.016285 0.0513195 0.0030679 
0.038117 -0.0663405 -0.000285039 
0.046436 -0.0359792 0.000543244 
-0.031803 0.0254003 0.0175314 
0.024152 0.0295776 0.0196438 
-0.058573 -0.0245977 -0.00155672 
0.020165 0.0216339 0.0254188 
0.040033 0.0317378 0.0054387 
0.008164 0.0439871 0.00561257 
0.00626801 0.0419915 0.00794564 
0.056947 -0.0374992 0.000449657 
-0.037771 -0.000252501 0.0212784 
-0.051878 -0.0464599 -0.00204769 
0.034386 0.0099686 0.0198765 
0.038084 0.0037009 0.0203916 
-0.052073 -0.0263368 -8.03548e-05 
-0.042385 0.0037218 0.0098427 
-0.05208 -0.0363651 -0.000237189 
0.048134 -0.0081954 0.00420186 
0.030087 -0.0461761 0.00196821 
-0.042193 -0.0361467 9.69837e-05 
-0.00993597 -0.060206 1.41043e-05 
-0.011699 0.065374 -0.000207184 
-0.00329901 -0.0496271 0.000477031 
-0.00622601 0.0652003 -0.000136465 
0.056004 -0.0221789 0.00343361 
-0.032322 -0.0347723 0.00189375 
-0.053984 -0.0004303 0.00021149 
0.00214697 0.0337968 0.0251565 
0.029882 -0.0224147 0.0256124 
0.018106 -0.0720815 0.00143008 
0.016084 0.057737 0.00166258 
-0.035474 -0.0180704 0.0194458 
-0.025562 -0.0701718 0.000889764 
-0.028186 0.0595035 0.00140576 
-0.055837 -0.0025023 0.00582375 
0.032088 0.0155853 0.0237583 
-0.013921 -0.030447 0.0238766 
0.018439 0.0575042 0.00292924 
-0.013859 0.0718374 -0.000402248 
-0.011682 -0.0681205 0.000231673 
-0.042056 0.0097587 0.00954755 
-0.024009 0.0297696 0.0178504 
0.001987 -0.0384579 0.0199033 
0.000382996 -0.0660371 2.35816e-05 
-0.00199597 0.0557491 0.000319589 
0.031933 -0.0260204 0.0156338 
0.000374023 -0.0563587 0.00144342 
-0.014294 0.0298691 0.0213758 
0.026309 -0.0461909 0.00343479 
0.027991 0.0220547 0.0219577 
0.032308 0.0260126 0.00929336 
0.048038 -0.0444511 0.00306729 
0.000247009 0.0519564 0.00375589 
-0.054263 -0.032197 -0.000170636 
0.011943 0.0638898 0.00149052 
0.014321 -0.0622333 0.00140994 
0.028126 -0.0699593 -7.35806e-05 
-0.046623 -0.0176546 -1.52702e-05 
0.025878 -0.022463 0.025205 
-0.035897 -0.0165484 0.0226182 
-0.00311603 -0.0362524 0.021688 
0.002005 0.0478057 0.00389794 
0.011922 0.0377829 0.015739 
-0.012042 0.0260652 0.0238471 
0.061808 0.0260818 0.00304086 
-0.00595898 0.0358705 0.0216181 
-0.012003 0.0318759 0.0219252 
-0.026128 0.0417914 0.00203744 
-0.031499 0.0591681 0.00260382 
-0.033798 0.0115211 0.0234384 
0.03049 0.0343009 0.00399697 
0.044253 -0.0162981 0.00555687 
-0.057157 0.0357669 0.000871303 
0.016014 0.0239876 0.0258031 
-0.049851 -0.0503484 -0.00173894 
0.028457 -0.0660363 7.57604e-05 
-0.036073 -0.0322291 0.00356932 
0.054244 -0.0099992 0.00375435 
-0.013779 0.0416576 0.00737705 
0.016093 0.0593094 0.000369745 
0.018136 -0.0665146 0.000172884 
-0.028009 -0.0364246 0.00588744 
-0.014068 0.0517057 0.00300097 
-0.011941 -0.0483205 0.00356683 
-0.00170599 0.0674822 0.0028349 
0.000892029 -0.0615772 0.00280309 
0.033655 -0.0326235 0.007504 
-0.01388 -0.0685649 9.42849e-05 
-0.01592 0.061591 -5.81557e-05 
-0.025786 -0.06234 -0.000428626 
-0.027913 0.0677493 -0.000399312 
-0.03141 0.0199402 0.021791 
-0.017828 -0.0282648 0.0239662 
0.007828 0.0456109 0.00524998 
-0.033702 0.003433 0.0249085 
0.032053 0.0496706 0.00159427 
-5.29785e-05 -0.0418238 0.0176729 
-0.001539 -0.0406614 0.0197851 
-0.053925 -0.0082416 0.00144753 
-0.028239 -0.0382066 0.00532911 
-0.029851 -0.0120148 0.0248338 
-0.041917 -0.0323808 0.00176373 
0.050114 -0.0521057 0.0016593 
-0.048061 0.0076442 0.00533253 
-0.030219 -0.0284636 0.0157536 
0.014471 -0.0342784 0.0218776 
0.00402899 -0.0724583 -4.02652e-05 
-0.040812 0.010706 0.00825929 
0.000135986 -0.0486423 0.0036421 
-0.00108698 -0.0385972 0.0201338 
0.012375 0.0360074 0.0175675 
-0.01782 -0.0502222 0.00587232 
-0.02962 -0.0079493 0.0250406 
0.034438 -0.0285452 0.007701 
0.021993 -0.0304068 0.0236319 
-0.020069 0.072006 -0.000447789 
-0.017555 -0.0543913 0.000171684 
0.052251 -0.0159679 0.00343407 
-0.00153003 -0.0363553 0.0218376 
0.021849 -0.0354917 0.0190365 
-0.00201501 0.043397 0.00921705 
0.059984 -0.020027 0.00180641 
-0.000189026 0.0435511 0.00927679 
0.016332 0.0256265 0.0239317 
-0.049735 -0.0522335 -0.000606332 
0.030303 0.0136771 0.0235915 
-0.030295 -0.0362887 0.00538386 
-0.00972803 -0.0273209 0.0225278 
-0.058006 -0.0342435 -0.000727425 
-0.00174298 -0.0603181 0.00151712 
-0.00408698 0.069712 0.00143349 
-0.053931 0.0436232 -0.000744029 
0.056046 0.0176525 0.00209615 
-0.035762 -0.0143818 0.0217562 
0.052133 -0.0539035 0.00136282 
0.044123 -0.0021157 0.00752664 
-0.06778 0.0273008 -0.000408808 
-0.029944 0.0298526 0.00967985 
-0.010935 0.034588 0.0196906 
-0.00979999 0.0557762 0.00141915 
0.032304 0.0221967 0.0197166 
0.012302 -0.0624358 0.00162564 
0.00987 0.0694315 0.00144652 
0.00798297 -0.0681064 0.00177884 
0.00590997 0.0536397 0.0018223 
0.03596 0.041778 0.00340657 
-0.050173 0.0258401 0.00136174 
-0.044172 -0.0066795 0.00401434 
0.038029 0.0257905 0.00547528 
0.03192 0.0016578 0.0253465 
-0.000294983 -0.0756606 0.000705684 
-0.00193903 0.0499227 0.00219973 
-0.016039 0.0384028 0.011976 
-0.039547 0.023485 0.00559295 
-0.064216 -0.0098033 -0.00171865 
0.024069 -0.052244 0.00159689 
0.00215601 -0.0524886 0.00392386 
0.068025 -0.0284471 0.00158983 
-0.024116 0.0359782 0.00773762 
0.000567993 -0.038966 0.019584 
-0.055855 0.0397074 -0.000358633 
0.060495 0.0320409 0.00345582 
0.016039 0.0398062 0.00746286 
-0.036062 0.0215458 0.0116947 
0.058267 -7.41005e-05 0.00359671 
-0.037617 0.0088293 0.020714 
-0.00997302 0.0361091 0.0174772 
-0.013706 -0.0622506 1.50131e-05 
-0.01595 0.0637199 -2.46902e-05 
-0.011688 0.0637567 0.00125671 
-0.010221 -0.0661893 0.00107026 
0.051911 0.0395616 0.00347051 
0.010347 0.0258533 0.023758 
-0.034145 0.0338371 0.00360487 
-0.028129 0.0692797 -0.000796916 
-0.02573 -0.0562312 -7.03731e-05 
0.04001 -0.0563081 0.00144504 
-0.049651 0.0515581 -0.000915243 
-0.03781 0.0056906 0.0217869 
0.036293 -0.0308546 0.00395644 
0.051849 0.0073751 0.00546186 
-0.051872 -0.0381721 -0.000346469 
0.034097 -0.0218098 0.0173904 
0.060056 -0.0243139 0.0017217 
-0.011658 -0.0288634 0.0266747 
0.029914 -0.0104881 0.0240151 
-0.00975702 0.0339279 0.0216998 
-0.019895 -0.0600937 6.85975e-05 
-0.04209 0.0019155 0.011691 
0.030259 -0.0261218 0.0197976 
0.000947998 -0.0312013 0.0210996 
0.041636 0.0458741 0.00354227 
-0.019968 0.0539157 0.00129921 
-0.01224 0.0517118 0.00300122 
-0.033798 0.0176859 0.0196207 
0.034125 -0.0141094 0.0235764 
0.057893 -0.0424104 0.00144358 
0.017935 0.0713369 0.00110431 
0.046231 -0.0363985 0.00170428 
-0.018153 0.0364867 0.00647257 
0.016033 0.0557423 0.00171284 
0.018086 -0.0701276 0.00135355 
-0.072035 -0.0046565 -0.000589099 
-0.010004 -0.052 0.00554528 
-0.024053 -0.0205285 0.023562 
0.000223022 -0.0723117 -0.000150806 
0.036372 -0.0005576 0.0195377 
-0.031873 -0.0083144 0.0249516 
0.052104 -0.0341856 0.00168366 
0.032308 -0.0505117 -0.000266185 
0.042062 -0.0302261 0.00553796 
-0.028046 -0.016397 0.0241288 
-0.036182 0.0358563 0.00307581 
0.073841 0.0054758 0.00308981 
-0.019747 -0.0341694 0.0216232 
0.020032 0.0294601 0.0216269 
0.03811 -0.0103386 0.0177738 
0.034387 0.0203991 0.017734 
0.043524 -0.0004011 0.00947584 
-0.00778601 0.0401449 0.0131788 
-0.021883 -0.0640943 -2.1369e-05 
-0.023815 0.0618388 -0.000189128 
0.066219 -0.0142319 0.00182486 
0.024167 0.0415769 0.00387878 
0.047982 -0.0561118 0.00141748 
-0.047849 0.0135187 0.00347181 
-0.024005 0.0638396 -0.00019327 
-0.021908 -0.0661429 -0.000197992 
0.049998 0.0433892 0.003778 
0.018047 -0.0380795 0.0194325 
0.055923 -0.0342402 0.00178065 
-0.031685 0.0015116 0.0253536 
-0.046035 -0.0242446 0.00163509 
0.041506 -0.0397976 0.00310836 
0.020083 0.0202313 0.027177 
-0.023925 0.0237549 0.0238567 
-0.049898 0.0216636 0.00142683 
0.028088 -0.049568 0.00267891 
-0.00086499 0.0404686 0.0110601 
0.061961 0.0314539 0.00164974 
0.010199 0.0397782 0.0136887 
-0.023998 0.0400593 0.00403875 
-0.069308 -0.0313407 -0.00108987 
0.024036 0.0475837 0.00353661 
-0.026072 0.0296753 0.0177056 
0.037964 0.0238489 0.00560561 
0.072125 -0.0198281 0.00270736 
0.040334 -0.0004624 0.0175511 
0.055989 -0.0161457 0.00328615 
0.040015 -0.0643141 -0.000207791 
-0.038067 -0.0061126 0.0197 
0.00601501 0.075436 0.00165994 
0.00820697 -0.0581574 0.00173596 
0.00578998 -0.0524947 0.00379414 
0.026042 0.0400503 0.00405595 
0.03012 -0.0442607 0.00345997 
0.00828699 0.0298164 0.0235923 
0.014172 0.0239184 0.0252073 
0.000163025 0.042025 0.00758774 
0.036219 -0.0682007 -0.000172501 
0.00599902 0.0401504 0.0114688 
-0.017653 -0.0663219 5.34042e-05 
-0.01977 0.0595274 -9.61643e-05 
0.035947 0.0318473 0.00553748 
-0.028428 0.0320382 0.00758956 
0.022957 0.0153049 0.0225171 
-0.038125 -0.0303762 0.00355131 
0.018199 0.0596358 0.00321579 
-0.022022 0.0258945 0.0217373 
-0.030511 0.0277633 0.0101059 
-0.037603 0.0475412 0.000855717 
-0.026027 0.03389 0.00977915 
0.065964 -0.0042497 0.00176246 
-0.065725 0.0068141 -0.00141555 
0.038099 0.043784 0.00141692 
0.059997 0.0435719 0.00146013 
0.00289301 -0.0349371 0.0222799 
-0.072147 -0.010227 -0.00227974 
-0.057924 0.0097599 -0.000166505 
0.011988 0.0297575 0.0239175 
-0.000289001 -0.0462216 0.00375912 
0.054197 -0.0065575 0.00211283 
-0.043733 0.0435873 -0.00026983 
0.033951 -0.066112 0.00152803 
0.032014 0.0598085 0.00163674 
0.067972 -0.0185726 0.00173658 
-0.0342 -0.0162397 0.0196304 
0.033752 -0.050704 0.00263826 
0.018175 0.0337043 0.0212743 
0.04963 -0.0181647 0.00786382 
-0.064008 -0.0003375 -0.000448752 
0.050241 -0.0263689 0.00340165 
0.053975 0.0297775 0.00351747 
0.010046 0.0636676 0.00185794 
0.01207 -0.0562648 0.00142987 
0.029942 0.0335036 0.00734432 
-0.025915 0.0134414 0.0251324 
-0.037682 0.0137633 0.0177611 
-0.024127 -0.0441358 0.00348852 
-0.038894 -0.0247801 0.00207928 
0.050065 -0.0284283 0.00174784 
0.062155 0.0417857 0.00161622 
-0.063925 -0.0380645 -0.000863131 
0.023881 0.0095471 0.0251625 
-0.052083 -0.0222789 3.17265e-06 
0.056298 -0.0125076 0.00194745 
-0.001466 0.0319388 0.0270375 
0.062055 -0.0262929 0.00475778 
0.020002 0.0255987 0.0252605 
0.029927 0.0517912 0.00335345 
0.026067 -0.0262329 0.0236487 
-0.208842 -0.138881 -0.0871685 
0.059851 -0.0143742 0.00292307 
0.070185 -0.0223928 0.0016071 
0.066227 0.0036621 0.0036926 
0.032728 -0.001584 0.0267879 
-0.034154 -0.0222913 0.0135851 
0.025994 0.0559298 0.00289846 
-0.032084 -0.0144915 0.0218776 
-0.00996002 -0.0404173 0.0175964 
0.030043 -0.0084771 0.0240589 
-0.020257 0.0361335 0.00897364 
-0.013769 -0.0483122 0.0017941 
-0.026059 -0.0523155 0.000152499 
0.049972 -0.0303426 0.00161963 
0.036099 0.023737 0.00749401 
0.032369 0.0199092 0.0219131 
-0.01796 0.0418768 0.00538778 
-0.03402 -0.0584001 -0.000313049 
-0.059974 0.0377598 -0.000648099 
0.00993103 0.0658692 0.00326963 
0.011645 -0.0586781 0.00280742 
0.050487 -0.0099748 0.00103787 
-0.06411 0.0077322 0.00073522 
0.057929 -0.0381301 0.00308867 
-0.027745 0.0417159 0.00338678 
0.043773 -0.0064521 0.0076769 
-0.037956 -0.0222562 0.00959765 
-0.030327 -0.0315328 0.0117482 
-0.034258 -0.0141145 0.0217887 
0.041895 -0.0442416 0.00172945 
-0.013791 0.065789 -0.000279107 
-0.01153 -0.0620805 2.19694e-05 
0.014271 0.0499067 0.00323191 
0.070001 0.0117866 0.00162063 
0.076049 -0.0024245 0.0014667 
0.029978 -0.0380724 0.00509844 
-0.052032 0.0095887 0.00160809 
0.049841 -0.0024437 0.00409585 
-0.075618 -0.000371401 -0.000800549 
-0.019876 0.0259243 0.0234995 
0.054463 -0.0026055 0.00227057 
0.061912 0.037631 0.00149115 
-0.031834 0.0476457 0.00128207 
-0.022175 0.051939 0.000121488 
-0.016179 0.0475688 0.00520101 
0.047956 -0.0304472 0.00183871 
0.014025 0.0274416 0.0237968 
-0.045948 0.0159732 0.00521183 
0.043794 0.0318389 0.0050624 
0.020063 0.0494649 0.00173814 
0.045937 0.0357186 0.00203795 
0.011937 0.0618451 0.00156805 
0.014303 -0.0684603 0.00126655 
-0.070001 0.0174978 -0.000377091 
0.00199902 0.0380196 0.0195979 
0.00812299 0.0262878 0.0247857 
0.022335 0.0321573 0.0158108 
-0.031893 -0.0125805 0.0248812 
-0.017773 0.0496111 0.00342129 
-0.04962 0.033774 0.00118456 
-0.047886 -0.0083897 0.00351922 
0.054333 0.0030596 0.00232279 
0.000434021 0.0320026 0.0271417 
0.059941 0.0396335 0.00332294 
0.020194 -0.0623968 0.000149603 
0.070116 -0.0043587 0.00169724 
0.01233 0.0399015 0.0117413 
0.050622 -0.0362709 0.000215949 
0.010055 -0.0339705 0.0249672 
-0.028649 0.0263009 0.0156442 
0.047862 0.029798 0.00314144 
0.062008 0.0077769 0.00320662 
-0.035493 -0.0218195 0.015899 
-0.047804 -0.0102579 0.00565188 
-0.037917 0.0516386 -0.000414975 
0.042083 -0.0487028 0.00337372 
-0.019896 -0.0462342 0.00333313 
0.047966 -0.0519612 0.000397691 
-0.037789 -0.0303537 0.00244123 
0.00741699 0.0540764 0.000356372 
0.00997498 -0.0724688 3.51852e-05 
-0.00198602 -0.0762262 -0.00043432 
-0.00418701 0.0542214 0.00031731 
0.064122 0.0412327 0.00122945 
-0.012189 -0.0364913 0.0252419 
0.068031 0.0038807 0.00338947 
0.031493 -0.0322117 0.0114581 
0.067765 0.023812 0.00168613 
0.052198 -0.0061788 0.00344365 
0.00637201 -0.0415235 0.0168016 
0.050286 -0.0124029 0.00311284 
-0.030097 0.0037152 0.0256442 
-0.0701 0.0057264 -0.00195732 
-0.019758 -0.0477988 0.0035927 
-0.04575 0.0417331 -0.00037167 
-0.053988 0.0355363 -0.000335199 
-0.032925 -0.0326294 0.00274267 
-0.063666 -0.0163127 -0.000412424 
0.056009 -0.0104345 0.00337693 
-0.047505 0.0037683 0.00744638 
0.00402698 0.0397667 0.0138951 
0.026237 -0.0242752 0.0238543 
0.00829602 0.0377994 0.0155372 
0.00602197 0.0431624 0.00914106 
-0.075987 0.0135747 -0.0022163 
-0.040002 -0.0539801 -0.000238157 
0.035623 0.0275392 0.0072507 
-0.058006 0.0458712 -0.000582528 
0.066018 -0.0363582 0.00136986 
0.072308 0.0076785 0.00160237 
-0.035628 -0.0420491 0.00498282 
-0.00609698 0.0400174 0.0134634 
0.032158 -0.0365378 0.0040837 
0.061787 0.0297171 0.0016848 
0.008138 -0.0343689 0.0240023 
-0.063839 0.0158349 -0.00194927 
-0.0621 -0.028405 -0.00198832 
-0.057861 -0.0265253 -0.000346335 
0.050068 0.0438207 0.00159104 
0.067849 0.0279364 0.00152272 
-0.021711 -0.0465576 0.00184405 
0.054083 0.0093919 0.00231255 
0.070037 0.0037634 0.00364903 
0.025936 0.0439167 0.00365891 
0.01396 0.0342151 0.0195189 
0.064315 0.0196029 0.00181962 
0.047902 -0.0203374 0.00354219 
-0.043755 -0.0562029 -0.000559296 
0.036088 -0.0270367 0.00388387 
0.010127 -0.0483097 0.00389816 
-0.02553 0.0174657 0.0252269 
0.050107 -0.0241607 0.0036515 
0.031807 0.0077448 0.0253601 
0.02238 -0.0325927 0.0176563 
0.0483 -0.0461043 0.00157327 
-0.032089 -0.0465013 0.00126089 
0.015864 0.0436865 0.00510307 
0.031904 -0.0238619 0.0178478 
0.0303 0.0001134 0.0293105 
0.049936 -0.0043248 0.00597169 
-0.051793 -0.0085521 0.00154145 
0.010011 0.027962 0.0254195 
-0.027915 -0.0340829 0.0117539 
-0.032058 -0.048365 0.000236773 
0.072199 -0.0064137 0.00163489 
0.071953 0.0198003 0.0014797 
-0.069921 0.0256804 -0.000493263 
0.050009 0.0281056 0.00195151 
-0.062179 -0.0142431 -0.000258185 
-0.027861 -0.0542881 -9.75717e-05 
-0.055542 0.0216147 0.00120661 
0.027958 0.0416707 0.0035222 
-0.00393597 0.0418494 0.00961124 
-0.03615 -0.0144735 0.0199795 
0.04821 0.0154319 0.00362203 
0.051348 0.0137884 0.00680775 
-0.042163 0.0199763 0.00366312 
0.030322 0.019714 0.0235279 
-0.02169 -0.0462692 0.00747109 
-0.050073 0.0377857 0.00107694 
-0.032083 -0.0258662 0.0197385 
-0.00604999 0.0420351 0.00796902 
0.02876 -0.0283564 0.0144335 
-0.034 0.0225695 0.011526 
0.0456 0.0036351 0.00711099 
0.032044 -0.0560684 0.000190189 
-0.033719 0.0517815 0.000871822 
-0.027467 -0.0436809 0.00673155 
-0.043791 -0.0280851 0.00527907 
0.034265 0.0617339 0.0013576 
0.038123 -0.0481833 0.00184401 
0.034069 -0.0063674 0.0250259 
0.040203 -0.0262651 0.00400342 
-0.050236 0.0417331 0.000773607 
-0.036251 -0.000180599 0.0199042 
2.00195e-05 -0.0343393 0.0253069 
0.017783 0.0417168 0.00741827 
0.028209 -0.0481754 0.00314906 
-0.021274 0.0330618 0.020712 
0.062225 0.0057591 0.00319775 
0.044258 -0.0305805 0.00394235 
0.027884 0.0280378 0.0153517 
-0.00159198 0.0497705 0.00515059 
0.014055 0.0578564 0.00328454 
0.060187 -0.0262616 0.00156674 
-0.069929 -0.0201409 -0.00202786 
0.070068 0.013634 0.00182676 
-0.025974 0.0257609 0.0216572 
-0.068345 -0.022133 -0.00223867 
-0.038655 0.0121343 0.0138489 
-0.023976 -0.0460194 0.00338046 
0.00168103 0.0436877 0.00934966 
-0.057641 0.0252639 0.000870622 
0.015986 -0.0342787 0.023703 
0.072128 -0.0141539 0.00173197 
0.054221 0.0175009 0.00185724 
-0.033695 0.0499278 -9.14198e-05 
-0.030293 -0.0106619 0.0235564 
-0.00411298 0.0278861 0.0256789 
0.036552 0.0017278 0.0195625 
0.024116 0.0454661 0.0038219 
-0.015469 -0.038054 0.0219899 
-0.03649 -0.0148405 0.0170758 
-0.031903 -0.0241174 0.019561 
0.001966 -0.0661661 0.00144244 
-2.99072e-06 0.0596699 0.00144651 
0.01642 -0.0425509 0.00714069 
-0.067664 0.0097385 -0.000727703 
0.048009 0.02187 0.00510006 
-0.045333 -0.0080267 0.00932869 
-0.048199 -0.0064167 0.00373218 
0.020257 -0.0208008 0.0254873 
0.03024 -0.0481011 0.00301207 
-0.015731 -0.0485241 0.00164426 
0.031991 0.0315088 0.00715343 
0.028591 0.0302077 0.0111736 
0.00485699 -0.0328964 0.0215612 
-0.042542 0.0017782 0.00964597 
0.05788 -0.0042819 0.00320911 
0.016036 -0.0344428 0.0212753 
-0.053632 0.0216951 0.00116976 
-0.046043 0.0378496 -4.3552e-05 
-0.014203 -0.0349195 0.0220494 
-0.037814 0.0497714 -0.000267173 
-0.208703 -0.140965 -0.0870273 
0.026114 0.019583 0.0237723 
0.043117 -0.0592803 0.00309497 
-0.025963 0.0375632 0.00554264 
-0.048251 0.0039859 0.00335008 
0.050024 0.0398563 0.00178016 
-0.051208 -0.002495 0.00704955 
0.025808 0.0312179 0.0175768 
-0.033738 -0.0284684 0.00772215 
0.00591901 0.0699701 0.00137793 
0.00825702 -0.0522405 0.0019483 
0.00639502 0.047828 0.00381418 
-0.054175 -0.0286194 0.00116401 
-0.015504 0.0374601 0.0181162 
0.00620398 0.0496926 0.00333343 
-0.031979 0.0237439 0.0179485 
-0.00608502 -0.0431709 0.00960039 
-0.042907 0.0036665 0.0083967 
0.020283 0.0378451 0.00935654 
-0.031896 -0.0343912 0.0037219 
-0.033892 0.0657801 -0.000807218 
-0.032059 -0.0600053 -0.000412722 
-0.043981 -0.0282953 0.00337528 
0.012107 0.0514982 0.00325356 
0.071979 0.013454 0.00133171 
0.00203302 0.0401633 0.0138206 
-0.17139 -0.154792 -0.0859648 
0.056064 -0.0042756 0.00200189 
0.024291 0.0358266 0.00788595 
0.042045 0.0331208 0.00231792 
-0.035755 0.0236934 0.00945109 
-0.039677 0.0518164 -0.000353231 
-0.011842 0.03002 0.0252694 
-0.058016 0.0235191 0.00100692 
0.066309 -0.0121895 0.00176552 
0.026118 -0.0724115 -0.000534398 
0.036589 0.0122521 0.0160554 
-0.067839 0.0337365 0.00107406 
-0.00995203 0.0617513 0.00145414 
-0.00790002 -0.0679044 0.00124364 
0.072054 0.0178918 0.00169185 
0.040046 -0.0620835 0.00139551 
0.03799 0.0636026 0.00105539 
0.064127 -0.0343873 0.00141839 
0.075952 -0.0102773 0.00125537 
0.063962 -0.0262778 0.00183429 
0.039582 0.0014635 0.0214315 
0.074096 -0.0063071 0.00158653 
0.041883 -0.0183612 0.00559378 
0.049992 0.0077764 0.00543881 
0.012054 -0.0703519 4.67282e-05 
0.070025 -0.0166094 0.00159316 
-0.053793 0.0296972 -0.00075136 
0.047976 0.03376 0.00186903 
0.049772 -0.0322443 0.00165352 
0.006349 0.0718719 0.00110274 
0.00806702 -0.0542127 0.00164805 
0.029957 0.0480547 0.00177371 
0.040122 0.0355196 0.00203981 
-0.037964 -0.0263632 0.00573057 
-0.029993 0.0317732 0.00580447 
-0.053729 0.0236563 0.0015662 
0.037814 -0.0079525 0.0179492 
0.03402 0.0217673 0.0177001 
0.035991 0.0298274 0.00531373 
-0.033761 -0.0562294 -0.00156968 
0.006039 0.029765 0.0254248 
-0.053826 -0.0222792 0.00101259 
0.048303 0.009958 0.00524622 
0.054784 -0.0066767 0.000545131 
-0.046059 -0.0084755 0.00567951 
-0.025925 0.0276037 0.0214216 
0.010178 -0.0742684 0.0011233 
0.00806702 0.0556954 0.00159845 
-0.037887 0.0117849 0.0177398 
-0.033838 -0.0142404 0.0234919 
0.061895 -0.0203623 0.00190792 
-0.029612 0.0413949 0.00345344 
-0.056116 -0.052249 -0.00238917 
-0.020016 0.0497834 0.00159956 
0.03419 -0.0482938 0.00168935 
0.056026 -0.0302787 0.00165187 
0.025986 0.0617416 0.00170946 
0.028148 -0.0620987 0.0017885 
0.066132 0.0056117 0.00306578 
-0.033687 0.0417229 0.00335857 
0.026035 0.0418455 0.00218731 
-0.065846 0.0035486 -0.00039898 
-0.065903 -0.0199154 -0.00192615 
0.026065 0.0575613 0.00156747 
0.028205 -0.058246 0.00139144 
-0.015624 -0.0320884 0.0235267 
0.010104 0.0476096 0.00372691 
0.028332 0.0136652 0.0239379 
-0.031641 -0.0244481 0.0211809 
-0.057721 -0.0162588 0.00125471 
-0.030178 0.0277892 0.0135705 
-0.071905 -0.0025041 -0.000334925 
-0.016006 0.0717753 0.000941204 
-0.013782 -0.054146 0.00155633 
0.059823 0.0035451 0.00179811 
0.007888 -0.0604942 0.00139555 
0.006005 0.0616557 0.00123695 
-0.040793 -0.0200976 0.00592995 
-0.03236 -0.0044185 0.0221521 
0.070191 -0.0083765 0.00150332 
0.020277 0.0398073 0.00577154 
0.047827 -0.03426 0.00309075 
-0.043944 -0.0561868 0.00115627 
0.03194 0.0554741 0.00188135 
-0.067996 -0.0160217 -0.000716381 
-0.00587701 -0.0602753 -8.21526e-05 
-0.00819 0.0659229 -0.000132189 
0.073845 -0.0105475 0.00160491 
0.050046 0.0217332 0.00205017 
-0.023672 -0.0321382 0.0215813 
0.029918 0.0158267 0.0237895 
-0.041602 0.0032642 0.0138069 
0.05613 -0.0077955 0.00514475 
0.05325 0.0320351 0.00476088 
-0.025926 -0.0201646 0.0236814 
0.064251 0.0017447 0.00319009 
-0.073939 -0.008399 -0.00233087 
-0.040073 0.0213687 0.00173 
-0.061769 0.0398071 -0.000406095 
-0.060048 -0.0442239 -0.000706025 
-0.060015 0.0199988 -0.000344992 
0.000161987 -0.0343336 0.0238788 
-0.067434 0.000313 0.00103724 
-0.033926 0.0597459 -0.000341782 
-0.032285 -0.069901 -0.00101569 
-0.063828 0.0220306 -0.00201868 
-0.059502 0.0257441 0.000813222 
0.001159 -0.050155 0.000349018 
0.049295 0.0099112 0.006984 
-0.044 -0.0421725 -1.7796e-05 
-0.012133 -0.0501367 0.00572396 
-0.025895 -0.0464652 0.00191021 
0.038162 -0.0183363 0.0141279 
0.050109 -0.0519611 0.000316973 
-0.00985699 0.0712889 -0.000230064 
-0.00788098 -0.062226 -3.51924e-05 
0.038084 0.0417237 0.00151003 
-0.02399 0.0295058 0.0199385 
0.027042 0.0268257 0.0227797 
0.00424298 0.0597238 0.00140713 
0.006021 -0.0702828 0.00153984 
0.026073 -0.0142775 0.0251946 
-0.035541 0.0136989 0.0212998 
0.041516 -0.0101693 0.0155908 
-0.017863 0.0317013 0.0233403 
0.034073 -0.0541838 0.00158809 
0.02817 0.0435419 0.00545952 
0.040198 -0.0160951 0.0114372 
0.051803 0.0478689 0.00159146 
0.013846 -0.0280632 0.0221301 
0.00221698 0.0296168 0.0240058 
0.051697 0.0359178 0.002018 
0.046194 -0.0024158 0.0055753 
0.036172 0.057833 0.00180907 
0.00257001 -0.0365574 0.0218359 
0.04985 0.0517462 0.00148189 
0.045911 -0.0344388 0.00175571 
0.040969 -0.00243 0.0138604 
-0.010105 -0.0740849 0.000756137 
-0.011997 0.0558298 0.00126661 
-0.04997 0.0496548 -0.000837385 
0.040301 0.0197776 0.00572747 
0.012074 0.0457389 0.00398557 
0.03621 0.0397976 0.00349985 
0.034256 -0.0621419 0.0001094 
0.000159973 -0.0566642 0.000208411 
0.024456 0.0303404 0.0160114 
0.017962 0.0536982 0.00162941 
0.020125 -0.0662703 0.00171037 
0.00684497 -0.0330638 0.0216634 
0.00622498 -0.0642816 2.75489e-05 
0.042137 -0.0124242 0.00978081 
0.021911 0.0199425 0.0257866 
0.016254 -0.0442213 0.00550104 
0.054173 -0.04416 0.00175407 
-0.011954 -0.0482337 0.00547295 
-0.042094 -0.0042207 0.0117054 
-0.040469 -0.0502117 0.00135183 
0.050203 0.0195135 0.00223849 
-0.027764 -0.0582624 -0.000275444 
-0.031824 0.0298276 0.00755526 
-0.055905 0.0175226 -1.32153e-05 
-0.019996 -0.0579884 -0.000189071 
-0.035722 -0.0420547 0.00297297 
-0.00587701 0.0397335 0.0157318 
0.061906 -0.0302939 0.00192068 
-0.023768 -0.03447 0.0157531 
-0.024031 0.0336037 0.0113009 
-0.020073 0.0259104 0.025098 
0.031967 -0.0343251 0.00534296 
-0.056046 -0.0284379 -0.000262242 
-0.048184 -0.0022538 0.0055429 
-0.043976 -0.003923 0.00568979 
0.032098 -0.008588 0.0240814 
-0.063942 0.00181 -0.000334307 
-0.014405 -0.0710069 0.00140003 
-0.016015 0.0555761 0.00110574 
-0.02789 -0.0442197 0.00209026 
0.03375 0.0196814 0.0158355 
0.03823 -0.01003 0.0157638 
0.04191 0.007842 0.0116379 
0.055959 0.0478049 0.00136985 
-0.040221 -0.0125723 0.013786 
-0.017704 -0.0523075 3.40913e-05 
-0.023954 -0.0642072 -0.000231517 
-0.026026 0.0655328 -0.000200197 
0.061848 -0.0140931 0.00328992 
0.027955 0.0455026 0.00512188 
-0.046439 -0.0471392 -0.00164458 
0.050019 -0.0401767 0.00170552 
0.024338 -0.0324049 0.0152841 
0.013869 0.0658397 0.00175975 
0.016235 -0.0682487 0.00133672 
-0.036532 -0.0128654 0.0185324 
-0.044043 0.0035743 0.00758779 
-0.029174 -0.019882 0.0249269 
0.062118 0.0038026 0.00306001 
-0.015362 0.0318504 0.019806 
-0.027666 0.0394367 0.00537189 
0.058134 -0.010313 0.00160251 
0.03208 0.0237708 0.0157798 
-0.00759497 0.0316865 0.0236769 
-0.045935 -0.032142 0.00146307 
-0.000130005 -0.0479214 0.00528905 
0.057874 -0.030484 0.00182975 
0.06613 -0.0181804 0.00216032 
-0.00580603 0.0615666 0.00150534 
0.072174 -0.0265948 0.00146249 
0.065974 0.0118836 0.00194758 
0.022135 -0.0443606 0.00390241 
-0.068068 -0.0122821 -6.99036e-05 
0.05263 0.0073538 0.00198781 
-0.041033 -0.035964 0.00501655 
-0.050034 0.001861 0.00190647 
0.033917 0.0078211 0.0240537 
0.037801 0.0016441 0.0231724 
0.029748 0.0314561 0.00942068 
0.051812 -0.0402325 0.00179982 
-0.019955 -0.030258 0.0236941 
-0.015911 -0.0490561 0.00571492 
-0.028018 -0.0328145 0.0115839 
0.064045 0.0035091 0.00461478 
0.00419299 0.0411098 0.0130495 
0.017926 0.0238951 0.0254 
0.028121 0.0305857 0.00667247 
0.038025 0.0650695 0.00104713 
0.040038 -0.0643704 0.00119031 
-0.051971 -0.0022872 0.00347053 
-0.033944 0.0215683 0.0157267 
-0.06048 -0.0223771 -0.00164629 
-0.021979 -0.0242185 0.0250854 
-0.039746 0.0477184 -0.000133902 
-0.03109 0.0429671 0.00354401 
-0.023624 0.0316553 0.0156377 
-0.045881 0.035501 0.0011101 
-0.044368 -0.0023564 0.00570829 
-0.042085 -0.002183 0.0117842 
0.00238202 0.049693 0.00489895 
-0.020425 0.0467983 0.00012277 
0.019771 -0.0591304 0.00280416 
0.018111 0.0456834 0.0036964 
0.038118 0.036189 0.00662725 
-0.063834 0.0215001 0.00101836 
0.024667 0.0345272 0.00431382 
-0.013933 0.0295948 0.0253477 
0.074066 -0.0182719 0.0012057 
0.01838 -0.070826 -0.000165094 
0.015664 0.0555319 0.000392628 
-0.036134 -0.0301628 0.00555562 
-0.039103 -0.0138323 0.0202481 
-0.00995001 0.0357735 0.0195959 
0.05646 -0.0022671 0.00194929 
-0.052129 0.0373486 -0.000481056 
0.033832 0.0458723 0.00163966 
-0.053997 -0.0464676 0.000811948 
0.043673 0.0097147 0.00738483 
-0.043984 0.0377087 8.1014e-05 
0.024174 -0.0442434 0.00364589 
0.076137 -0.0123517 0.00140101 
0.064367 0.0098424 0.00305842 
0.067895 0.0196979 0.00328945 
-0.027951 -0.0524409 -0.000130891 
-0.067787 -0.026406 -0.000571328 
0.058201 -0.0223995 0.00187696 
0.040032 0.0238208 0.00530576 
0.008 0.0657473 0.00138227 
0.010223 -0.0601367 0.00147001 
-0.021761 -0.0665384 -0.00145753 
0.000380981 -0.0524587 0.00382321 
0.010409 0.0736226 0.000847195 
0.012175 -0.0663051 0.00128652 
0.03023 0.0016853 0.0254974 
0.00220801 -0.0471169 0.00336914 
6.89697e-05 -0.0414558 0.021995 
0.00847498 -0.0320708 0.0266723 
0.030283 0.0395871 0.00540837 
0.041098 0.0042238 0.0178832 
-0.034185 0.0275284 0.00572358 
-0.00381702 -0.0566093 0.000347442 
-0.00589502 0.0719255 -0.000186459 
0.034982 0.0226468 0.0098356 
0.065327 -0.0214323 0.00469445 
0.00629498 -0.0305835 0.0216588 
-0.015885 0.0538316 0.00133114 
-0.053398 -0.0119424 0.00327184 
0.014158 0.037796 0.0136772 
0.060203 -0.0022666 0.00161004 
-0.039434 -0.0043064 0.0198186 
0.031778 -0.036272 0.00505353 
-0.040103 0.0134657 0.00957384 
-0.059955 0.0237001 0.000898468 
0.065951 0.0196869 0.00327115 
-0.050101 0.0438449 -0.000272951 
-0.051869 0.0015726 0.00517166 
-0.031877 -0.0504141 9.41633e-05 
0.030125 0.0617207 0.00192797 
-0.011433 -0.0464235 0.00177942 
-0.007841 0.0479166 0.00511048 
0.073942 -0.0226893 0.00114387 
-0.039987 -0.018468 0.0096981 
-0.027643 -0.0623004 -0.000460899 
-0.025618 -0.0377309 0.0112009 
-0.00597699 -0.0378453 0.0217165 
0.038221 -0.0284524 0.00413312 
0.033938 0.0419503 0.00354303 
0.010331 -0.0382847 0.023443 
0.057959 -0.0122123 0.00297269 
-0.00405701 0.0378884 0.0194961 
-0.00381 0.035918 0.0218086 
0.022272 0.0257593 0.0235942 
-0.060752 -0.0069029 -0.00218015 
-0.039695 0.0632472 -0.000899421 
-0.038029 -0.0664152 -0.000629028 
-0.042205 -0.0381609 0.0015576 
0.037854 -0.0441636 0.00180212 
0.033917 0.0576918 0.00140698 
0.031936 0.0276251 0.00955013 
-0.022331 -0.0208129 0.0250002 
0.046173 0.0338296 0.00206985 
-0.027807 0.0276567 0.0196732 
-0.035805 -0.0302868 0.00149305 
0.017616 0.0636599 0.00336319 
-0.034215 0.0480062 -0.000271695 
-0.0278 0.02731 0.0177516 
0.022473 0.0365161 0.0077816 
-0.00978998 -0.054228 0.00136858 
0.04981 0.0076849 0.00372725 
0.062108 -0.0161636 0.00325435 
0.071733 0.0057082 0.00170682 
-0.00823499 0.0434854 0.00752438 
-0.027957 0.037641 0.00537678 
-0.025909 -0.0383307 0.00574264 
0.020394 -0.0358827 0.0234563 
0.032259 -0.060002 -6.80089e-06 
-0.055651 0.0315647 -0.000456364 
0.033995 0.0274106 0.00751558 
0.013656 -0.0247084 0.0255416 
0.028152 0.067343 0.00153861 
0.030091 -0.0580548 0.00141616 
-0.04629 -0.0103595 0.00555309 
0.036004 0.0217642 0.00964183 
0.068001 -0.0105183 0.00189367 
0.038624 0.0117035 0.0179964 
0.032065 0.0036258 0.025314 
0.00218402 -0.0363112 0.0238197 
0.064084 -0.0142925 0.00186498 
-0.023839 -0.0585424 -9.41799e-05 
0.053975 -0.0201622 0.00185504 
-0.020448 0.0280729 0.0213596 
0.075838 -0.0043529 0.00135598 
-0.057774 0.0435229 -0.000691139 
0.052148 -0.0302798 0.00174514 
0.021738 -0.0540041 0.00266605 
-0.019722 -0.0623299 0.00119186 
-0.022044 0.0534182 0.0013687 
0.00617297 -0.0705157 0.000198256 
-0.033962 0.0299451 0.00414402 
-0.041582 0.0076788 0.0134698 
-0.029855 -0.0099349 0.0248895 
0.042218 -0.0123749 0.00795876 
-0.035367 0.0378797 0.00508251 
0.000765015 -0.0362341 0.0213851 
-0.065723 -0.0222407 -0.000477507 
0.063966 -0.0043205 0.00157664 
0.043079 0.0018278 0.0108435 
0.029566 0.0178518 0.0254908 
0.026197 -0.0126241 0.0240663 
-0.00177301 0.0414228 0.0110938 
0.05437 0.0115778 0.00234785 
0.032248 0.0096435 0.0257483 
-0.06186 0.0278723 -0.000415518 
-0.031752 0.0375618 0.00551131 
-0.062005 -0.0223352 -0.000437521 
0.061959 0.0196643 0.00173521 
-0.042094 -0.0303679 0.00174427 
0.011622 0.0260761 0.026713 
0.027546 -0.0336576 0.014757 
0.070056 -0.0063347 0.00166834 
0.00804102 0.0674903 -4.23382e-06 
0.010413 -0.0621047 0.000117084 
-0.06996 -0.0081353 -0.0021364 
-0.069908 0.0118039 -0.000342247 
-0.034007 0.0437589 0.00159464 
0.042479 0.003389 0.00577603 
0.02421 -0.0244611 0.0239796 
-0.045886 -0.0564563 -0.00187688 
-0.038143 -0.0001674 0.0198517 
-0.043877 -0.0521127 -0.00190745 
0.04166 -0.0652622 0.00146635 
0.040003 0.0636917 0.000996175 
-0.023964 0.071373 -0.000437604 
-0.021819 -0.0582716 -8.90382e-05 
0.020358 -0.0303157 0.0236685 
0.048187 -0.0123201 0.00381249 
-0.003867 -0.0483855 0.00366874 
0.066013 -0.0263952 0.00186389 
-0.040517 -0.0043032 0.0155437 
-0.014299 0.0696571 -0.00034681 
-0.01176 -0.0662417 0.000155543 
0.007117 0.0292151 0.0266209 
0.04421 -0.0242162 0.00362422 
-0.033411 0.0315477 0.00721878 
-0.00160101 0.0358013 0.0218054 
0.048179 0.0121632 0.00519759 
0.044203 0.0313064 0.0020584 
0.036133 -0.0563545 0.00151733 
0.027333 -0.0317087 0.019205 
0.037008 -0.0208602 0.0137709 
0.00189697 -0.0406612 0.0156381 
0.034024 -0.0222619 0.01932 
0.014087 -0.0503468 0.00361667 
0.044251 0.0076865 0.00587112 
-0.023642 -0.0741105 -0.00071629 
-0.025889 0.0597327 9.18137e-06 
-0.034085 -0.0465259 0.000340989 
-0.043968 -0.016341 0.00741556 
0.044884 0.0277776 0.00661447 
-0.040113 0.007766 0.0136203 
-0.02206 -0.0404555 0.00570394 
-0.035712 0.0638678 -0.000601518 
-0.034028 -0.0621803 -0.000286092 
0.054279 -0.000842699 0.00232747 
0.00998401 -0.0566398 0.000324352 
-0.00595001 0.0281949 0.0240617 
-0.060033 0.0238715 -0.000350057 
-0.021848 0.0477518 0.0018477 
-0.00588501 0.0474684 0.00525174 
-0.075088 -0.008994 -0.000730032 
-0.049929 -0.0024761 0.00202235 
-0.00191998 0.0335571 0.0234794 
-0.00977399 0.0380624 0.0133795 
-0.030206 0.0139045 0.0235426 
-0.008336 -0.0365379 0.0222814 
0.054177 -0.0124452 0.00327864 
-0.071933 -0.014283 -0.00229183 
-0.026116 0.0197795 0.023719 
0.00998798 0.031349 0.0249238 
0.030528 0.0038705 0.0275934 
0.000606995 0.0408317 0.0167055 
0.04812 0.0190804 0.00207484 
0.044105 -6.83002e-05 0.00771289 
-0.031578 -0.0541758 0.00122244 
0.055879 -0.0263335 0.00144253 
-0.00593903 -0.0560903 0.00131451 
-0.00791101 0.0697841 0.00146138 
-0.051961 -0.0141237 0.00143385 
0.056156 -0.0083699 0.00195156 
-0.048008 -0.0441802 -0.000263783 
0.012834 -0.0370008 0.0194897 
0.020089 -0.0241564 0.025512 
-0.028094 0.0517092 6.70764e-05 
0.038282 0.0200038 0.00573405 
-0.00995697 0.0497325 0.00354117 
-0.020186 -0.0324748 0.0218736 
-0.055809 0.0437677 -0.000684348 
0.012693 0.0240316 0.0244823 
0.046154 0.0218177 0.00410181 
-0.029781 0.0433613 -0.000102942 
-0.06017 -0.0385591 -0.00174496 
-0.062141 0.0339462 -0.00184117 
-0.029636 0.0059126 0.0254943 
-0.030684 -0.0301903 0.0121578 
0.00777899 0.0262427 0.0211032 
-0.029904 0.0158546 0.0233802 
-0.032044 -0.026518 0.0158324 
-0.03575 -0.0386525 0.00155361 
0.037923 -0.0514891 0.000160898 
-0.030223 0.0577405 0.0013909 
0.05385 0.0200022 0.00226509 
-0.015862 0.0597445 0.000114447 
-0.013739 -0.0663628 3.24684e-05 
0.061819 0.0075332 0.00202828 
0.020117 -0.0424096 0.00568556 
-0.028106 -0.0262552 0.021686 
0.01964 0.0195921 0.0222875 
0.016026 -0.0761716 -0.000409153 
0.014409 0.0579948 0.000312486 
0.062271 -0.0143663 0.00195906 
0.02004 -0.0742952 0.00116287 
0.01818 0.0616666 0.00148797 
0.026961 0.0743156 -0.0415251 
0.05982 -0.0023838 0.00316423 
-0.019886 0.0697431 0.00109199 
-0.017652 -0.0605637 0.00103932 
0.074253 -0.0042918 0.00137208 
-0.00407098 0.0435225 0.00768557 
0.050117 -0.0482084 0.0015697 
0.00225598 -0.0547569 0.00342888 
-0.061861 -0.0384172 -0.00184247 
-0.032084 -0.0324296 0.00579135 
0.01974 0.0581961 0.000488341 
0.022069 -0.0684677 0.000109233 
-0.074032 0.0036235 -0.00021933 
0.044046 0.0517977 0.0015104 
-0.021681 -0.0340927 0.0217563 
-0.055367 0.0084758 0.00295381 
-0.035197 0.0409554 0.0031601 
-0.057593 0.0478509 -0.000436911 
0.027526 0.017973 0.0267201 
-0.018214 -0.0499826 0.00157903 
0.073935 0.0098979 0.00125138 
0.016303 -0.075495 0.000849264 
0.014036 0.0575828 0.00167303 
-0.023877 -0.0302857 0.0218157 
0.063967 -0.0181532 0.00224538 
0.042265 -0.0604041 8.35434e-05 
0.038292 -0.0381165 0.00189667 
0.034244 0.0477609 0.00156812 
3.49731e-05 -0.0701909 0.0012493 
-0.00218298 0.059588 0.0014076 
-0.07196 0.0111177 -0.000433658 
0.04243 -0.0038177 0.00968066 
-0.020008 0.0479078 0.00193654 
0.054108 0.0337005 0.00194605 
0.016187 -0.048099 0.00375066 
0.046068 -0.0102815 0.00430753 
-0.035822 0.0156798 0.0196458 
-0.02643 -0.0352132 0.00705299 
0.034376 -0.0645339 -0.000306835 
-0.00973401 0.032054 0.0234454 
0.030255 -0.0044032 0.0241382 
-0.042141 -0.000227501 0.0115474 
-0.030192 0.0158021 0.0219006 
0.068102 -0.0085067 0.00172014 
0.030317 -0.000292999 0.0253567 
0.026791 -0.0050072 0.0252551 
0.032182 0.0136091 0.0236684 
0.048127 -0.0401601 0.0031522 
0.056176 -0.0002054 0.00349572 
-0.041824 -0.0401884 -6.18662e-05 
-0.046156 -0.046165 0.000763308 
-0.057734 -0.0422165 0.00101981 
-0.027976 -0.0298854 0.019667 
0.062434 0.0433295 0.0011565 
-0.035942 0.0138693 0.0198227 
-0.027964 -0.0461323 0.00333801 
-0.01977 -0.0544065 0.000166855 
0.022159 -0.0244505 0.0238833 
-0.029864 -0.0142307 0.0247536 
0.038472 0.0373061 0.00200556 
0.053847 -0.0425336 0.00339601 
-0.048001 -0.0266178 0.000283979 
0.010349 0.0297624 0.0238049 
0.032015 -0.046147 0.0030515 
0.016224 0.0298126 0.0237312 
0.058056 -0.0142821 0.00188051 
0.036283 -0.0640886 0.00133526 
0.044304 0.0532795 0.00322415 
-0.031745 0.0373843 0.00351891 
0.024068 -0.0382183 0.00792125 
0.062145 -0.0281658 0.00171926 
-0.005948 0.027882 0.0268819 
