ply
format ascii 1.0
comment FreeCAD generated
element vertex 1823
property float x
property float y
property float z
end_header
-19.8620 -39.3583 12.9830 
44.4260 50.7793 4.63544 
-20.7490 -34.5468 18.5191 
21.0980 -44.0329 6.68036 
-33.8460 -50.1947 2.93531 
22.7760 28.3497 20.2322 
-22.9000 -31.2225 20.5162 
-44.5430 26.4397 0.511208 
32.1330 -53.8281 2.94980 
-23.6900 -38.2847 12.8283 
7.77802 27.6639 22.0746 
23.2210 -41.5957 7.92382 
-15.1290 24.2655 26.9487 
-30.8440 -29.9296 8.00294 
-65.6740 -18.2875 0.709805 
-43.0460 7.12110 11.1218 
-76.1900 17.5078 -1.12851 
-75.6830 13.1271 -0.873003 
-8.90997 -42.9134 8.18790 
13.3150 27.4502 22.5583 
13.9710 -69.9357 2.75143 
-16.5390 -33.1913 22.3661 
-23.9080 -46.2230 5.29347 
8.85101 25.7967 20.2021 
-41.0270 2.09790 18.1044 
2.34302 28.2202 26.6120 
4.14600 -39.1401 18.2664 
27.9140 -54.3667 2.59733 
44.9450 52.7671 4.63491 
-12.5240 26.1974 27.3808 
34.8360 -24.7379 12.5589 
-66.1910 -20.3535 0.712281 
6.92499 44.2553 4.55408 
-73.9280 17.4976 0.182864 
-47.0480 -30.1720 2.59164 
-34.0080 -48.0343 3.12300 
-27.6730 47.3882 3.49928 
-25.6560 49.6695 2.61757 
-67.2280 -19.3431 0.599564 
-64.8180 -19.4622 0.810628 
41.2480 5.17670 21.4660 
25.6430 -39.5814 7.08319 
-27.4700 28.8910 20.0032 
3.77502 -68.2255 2.83482 
45.9450 49.4844 4.79634 
43.9840 45.7755 4.71146 
-51.4550 -21.2960 3.01186 
15.0000 -71.5895 2.67733 
11.8450 58.6833 3.64598 
9.71698 28.9038 22.2140 
9.29401 25.4678 20.2479 
34.0650 56.0019 4.62434 
12.7320 28.3731 22.4868 
48.1880 29.5813 4.80588 
70.9500 -220.178 -80.7560 
68.7510 -219.329 -80.4635 
70.0440 -216.598 -80.4141 
70.2710 -218.607 -80.3485 
71.7250 -218.202 -80.2321 
-36.6880 23.5204 5.64211 
-62.4380 38.8647 1.13509 
33.4550 -59.7233 2.70932 
37.7770 -51.4255 3.52893 
40.3390 -30.6719 2.44053 
70.2750 0.198200 4.75042 
10.1780 -66.3641 2.59170 
70.2500 2.13230 4.64146 
-68.8000 31.7729 1.12154 
39.5380 -32.1661 2.33591 
41.3160 -22.2189 6.65027 
17.9890 -48.3875 5.41730 
31.5910 -26.4162 22.8199 
29.4780 -27.8392 23.7673 
24.0660 -36.4383 11.8719 
48.0140 -11.4794 2.13394 
52.9190 -4.95740 1.91860 
10.2170 -44.6165 6.40489 
2.46399 -53.6754 5.12924 
-0.143982 -54.0399 5.86344 
1.52600 -49.6782 8.13682 
-2.95001 -53.5812 6.28284 
60.5830 23.5627 4.84034 
-7.07300 -52.0136 6.60099 
-6.96301 -41.1935 14.1476 
-8.52802 -53.0669 5.35605 
-24.0020 -68.9651 -1.45871 
-45.7730 50.9452 1.53107 
-9.47101 -49.6689 7.43248 
10.7960 -42.8895 8.35329 
-9.71600 -48.3400 8.34658 
-14.9130 -45.8316 8.87832 
-41.2880 -41.3914 2.92940 
54.7030 33.4583 4.91821 
-12.1970 -37.2057 20.2818 
48.9610 -10.0759 1.94940 
36.8630 -54.4064 2.63229 
45.2200 31.2691 5.91541 
59.8730 47.8287 1.15399 
57.3820 45.8702 2.99572 
61.8540 24.9791 4.84305 
-24.2380 -42.1699 7.63603 
-19.5620 -52.0443 3.40596 
-22.7570 -37.1963 9.90407 
43.3650 36.1345 4.97087 
39.0620 36.4137 6.76392 
49.9100 -7.42790 1.86317 
47.8740 52.7665 3.40935 
55.0540 36.2025 4.78839 
-41.7500 -34.1281 5.22864 
-35.7020 -29.9382 8.67266 
-39.0310 -34.1194 6.68452 
-73.0930 -0.379000 0.624376 
-37.8180 -30.5439 8.06908 
-10.2150 -38.7835 18.3218 
-43.7560 -35.7681 3.96468 
-45.3260 -37.1606 2.65916 
-60.5000 36.9321 1.36637 
-29.9110 -52.2059 3.07053 
-66.1340 31.5139 1.30655 
-71.8500 29.3512 -0.544979 
0.653015 -51.6512 7.18689 
-63.9500 38.3718 1.06565 
-69.4740 32.9597 1.01251 
-70.2490 33.7461 -0.680709 
-31.5470 14.3595 25.1828 
-63.9420 33.5910 1.33154 
7.37799 -35.7647 24.7999 
-57.9780 -22.3667 1.12838 
-69.3390 35.6231 -0.443831 
-63.4260 28.3595 0.651408 
3.45203 -42.3874 11.7128 
-17.8520 -45.5879 8.67667 
-65.8590 34.3903 1.24814 
19.6260 -44.2541 6.77544 
-66.0190 37.5007 0.981605 
-64.1520 35.6286 1.20501 
-43.6100 -33.0138 4.68784 
-44.0680 55.1197 1.40852 
55.8100 40.4141 4.60301 
-69.6070 30.2989 1.15171 
-40.8770 6.64310 6.31084 
-13.4950 -56.1784 3.36890 
-61.5060 -27.0999 0.842056 
-11.7990 -52.3294 5.15674 
48.1760 49.9147 3.77868 
-67.8600 37.3655 -0.634356 
-46.3790 -9.96510 8.88780 
-66.9350 19.3432 0.927322 
-3.80103 -54.9529 4.95248 
-65.4680 5.92140 0.762686 
36.4950 -35.0584 1.72111 
-71.7200 31.4344 -0.838655 
-24.0160 -50.3890 3.19392 
-9.98602 -54.3667 4.43931 
-56.1120 39.8255 1.48666 
-66.0890 39.7815 -0.710390 
-2.47198 -40.8081 16.4208 
-51.9140 45.7133 1.42848 
-58.4460 38.2309 1.42574 
-2.31000 -47.8115 8.79130 
-65.0530 27.2894 0.606696 
-60.3820 30.9676 0.701486 
-75.4210 15.1654 -1.14117 
-66.0430 23.7557 0.739447 
-75.4520 12.7301 -1.25787 
-67.9220 19.7911 0.839298 
9.97498 -30.1846 26.6636 
-1.95599 57.6840 2.95788 
-67.7740 17.9602 0.950386 
-42.7130 53.5277 1.58356 
-34.0170 9.56340 24.6523 
2.95398 -51.3250 6.81428 
51.9080 49.2569 2.74727 
-43.3040 -14.1584 10.8227 
-67.8290 4.01150 0.717555 
-55.9090 -24.4000 1.25074 
53.4400 34.8265 4.76146 
40.0320 58.9217 3.56939 
60.5060 43.2930 2.86204 
53.7430 37.6628 4.62341 
-41.5270 3.56230 6.44023 
-57.7810 -27.8679 0.890892 
-43.8480 51.7773 1.60810 
7.97998 -66.5518 3.16014 
5.33600 67.6972 2.65369 
-31.6490 20.8659 23.1729 
-33.8810 16.2250 24.0235 
-42.0540 1.99810 7.87329 
-4.35602 -52.3802 6.78131 
-67.8250 29.6540 1.30158 
-37.0450 5.87950 23.6594 
8.03003 -70.5986 2.97556 
-43.7490 -11.8430 11.1675 
-45.4140 -15.9833 7.02553 
20.1180 45.6192 5.50244 
-39.9920 -40.5985 3.36976 
-41.8440 -26.5410 7.05290 
46.2340 44.1401 4.89461 
23.7580 -53.6431 2.74683 
19.7370 -54.3295 2.80698 
43.9870 -18.1565 2.53556 
-23.8490 -46.2634 6.85824 
-24.4100 17.5197 26.8327 
-15.9820 -51.4660 5.72776 
33.7680 -38.0923 1.76610 
-5.74701 -61.5069 2.65143 
4.34003 -52.1618 5.40236 
-0.258972 -51.6616 5.40361 
33.9890 -36.0046 1.98049 
-8.16199 -56.1971 3.50189 
25.4460 -20.6393 26.8248 
23.6480 -21.4007 27.0818 
22.0170 -22.7055 27.1144 
-6.66998 -51.7027 7.08195 
-8.28699 -53.7639 5.20874 
-12.2260 -58.2599 3.14686 
-11.8080 -55.5443 5.55709 
-13.9960 -58.2723 3.39902 
26.2190 -17.9197 26.6917 
17.9680 -23.1338 27.6027 
-7.93701 -50.6209 7.45454 
-12.5450 -53.6177 7.18862 
-16.2340 -58.1762 3.17064 
-13.5890 -52.1133 7.75623 
-9.41602 -47.3714 9.67601 
-15.4840 -52.9956 6.87884 
-21.3810 -58.7865 3.03690 
-14.7160 -50.3551 7.58671 
-10.2580 -46.2453 9.44462 
-19.9070 -47.7238 6.90638 
-6.40302 -30.0003 26.7877 
-15.8110 -44.1893 9.64841 
-23.9530 -52.2434 3.72089 
-11.2760 43.4557 3.81447 
-22.7230 -47.3636 6.98589 
-13.5880 -33.8639 24.6576 
-20.4030 -44.7030 8.10559 
-19.6550 -43.5683 9.01094 
-20.2760 -41.9746 9.61321 
-27.9540 -48.2651 3.96665 
-30.1820 -47.7555 4.02441 
-32.1400 -48.4324 3.37919 
-29.8760 -42.7423 5.63298 
-71.1530 12.4540 0.702804 
-31.7610 -44.0263 4.73348 
-33.1650 -44.6771 3.44901 
48.1950 44.0401 4.90390 
-31.1670 -41.4904 6.80670 
44.1800 41.6651 4.80485 
-28.7200 -37.4296 9.05741 
-34.5140 -43.1944 4.61104 
-19.6000 -58.0638 3.81213 
-35.5660 -36.4596 7.17539 
-5.87402 -50.2350 7.35947 
-41.8780 -39.9799 2.76400 
-38.0970 -42.4356 3.67373 
57.9540 41.7865 3.56295 
-19.7430 -56.5444 4.71169 
54.2960 45.3384 3.29594 
42.5590 -29.8133 2.08083 
19.4140 -21.9583 27.6022 
46.1540 41.9914 4.85454 
35.8080 -36.4010 1.90828 
49.9830 47.4435 4.69874 
-14.2630 -54.2505 6.85398 
48.1140 47.9504 4.12754 
-18.1500 -60.0698 2.97730 
-49.0720 -21.2896 4.83823 
-10.0560 -57.9245 3.10653 
-1.92297 -79.2835 -0.978154 
5.81799 27.1072 28.8062 
-45.5040 -26.2574 4.90399 
40.0310 47.9221 3.53982 
-25.6100 -42.2356 7.67678 
49.8960 51.8015 2.82901 
-67.4110 7.18810 0.827848 
45.8790 -14.6732 2.41155 
-41.2160 -2.85750 16.8566 
-43.1990 -4.27950 13.0547 
46.6070 -16.2019 1.74331 
21.5350 45.2660 5.90122 
-47.0170 -4.21330 8.61829 
52.7410 50.9667 2.60996 
8.24402 40.5440 7.50950 
-47.3570 -1.67890 8.84130 
50.1620 49.8121 3.14124 
-17.8300 24.3041 26.7671 
-49.0360 -2.18450 6.78055 
-46.1340 0.686600 10.7605 
-19.6390 23.9189 26.6987 
-41.4020 5.73150 16.0740 
-18.6250 25.7818 26.6325 
47.9470 51.5830 3.27944 
-45.6780 1.96450 9.57169 
45.9150 51.9155 3.40731 
61.5990 37.7811 3.10155 
-45.4760 5.36060 9.82869 
36.1430 47.8241 3.97208 
37.7910 49.8832 3.64979 
53.9840 47.6129 3.13691 
1.93903 44.2448 4.44265 
-4.31201 -48.6287 7.81287 
55.9070 47.9693 2.82294 
-35.1310 18.7058 18.7096 
-45.2090 1.24730 12.1102 
16.4250 58.1082 3.35347 
-26.0120 -47.8604 4.94694 
16.5390 -61.3343 2.71965 
13.9840 59.7561 3.31361 
-41.3420 7.33230 15.6012 
-64.1780 1.92850 1.22731 
-65.8660 1.15410 0.870641 
-0.164978 -49.9292 7.54657 
-35.7010 -46.3361 2.68282 
-33.9950 -45.6095 3.16756 
-43.2060 1.89470 13.7178 
31.7620 59.8973 3.47459 
-36.8650 29.7638 2.36700 
12.4370 69.9723 3.34818 
-70.3520 7.60500 1.05176 
-17.9690 -44.0567 9.21323 
-18.7310 47.9186 0.138557 
-25.6970 44.0235 0.0283113 
-35.3500 36.4257 0.555502 
31.8130 -38.5637 2.17193 
-69.5220 11.6587 0.837023 
-63.9190 41.1751 -0.672258 
19.9330 47.9437 5.62584 
-29.7400 -49.6591 3.19364 
18.5420 -24.7140 26.8963 
-34.4480 33.7126 2.22123 
-70.5210 30.2821 -0.708071 
-63.8850 39.0914 -0.526096 
7.26001 27.5109 28.8546 
-5.97400 -47.9716 8.73273 
-37.1020 -37.6038 6.63160 
4.29498 -48.2937 7.42826 
-38.2510 -40.6982 4.61913 
-9.81403 27.8134 26.9557 
39.8020 -2.22050 23.0060 
46.1040 -18.8566 1.90828 
-71.8870 27.8348 -1.09306 
-11.9590 -46.0311 9.26866 
14.8240 -62.3562 2.66660 
12.1160 64.1694 2.64694 
28.4920 -18.7745 26.8627 
-72.0870 25.7396 -0.971530 
28.0850 54.1425 2.93260 
-38.0360 -38.4450 5.17074 
45.9400 54.2296 2.84561 
44.6500 -16.5307 2.41064 
-28.5460 -42.1182 7.23192 
-71.5140 12.9268 0.654262 
-28.1540 -50.7917 3.28843 
-70.0630 28.2076 -0.432398 
-43.4560 5.66770 11.7662 
-15.3500 27.2872 26.7050 
-67.8770 31.9844 -0.334380 
-39.1830 -43.5622 2.88977 
-47.3280 -27.8786 3.44023 
-71.9690 23.4321 -0.835519 
-72.2590 17.7370 -0.344265 
-22.2830 46.0247 0.0765266 
-10.3220 -49.9567 8.68993 
-73.8770 15.4783 -0.378561 
42.5260 41.7460 4.69935 
45.9100 56.1714 2.93229 
53.6040 49.2955 3.22343 
-57.2390 51.0788 -1.03511 
46.5460 45.5408 4.64311 
-21.8010 -54.1975 3.30848 
-3.92102 -38.4077 19.9967 
-15.8550 -60.0039 2.94541 
-24.4220 45.7798 0.0658525 
-68.1830 16.3099 0.809573 
36.3690 -56.4055 2.66041 
37.9570 47.8410 3.38389 
-20.5720 22.4814 26.7421 
50.7150 -43.9378 3.51426 
-68.1020 8.91180 1.08430 
-18.0560 -54.3456 5.94627 
-13.8690 -55.8433 5.67097 
21.0280 -18.9561 27.4945 
-9.86102 -54.7437 5.53453 
-65.7780 8.62630 0.910833 
-29.6130 -40.5010 7.70157 
48.0770 -18.2368 2.20052 
-3.95801 -50.2129 7.36312 
47.7240 45.7525 4.83147 
25.2080 -52.5355 2.75093 
27.5830 -20.2315 26.9086 
-56.3990 41.6960 0.986075 
-68.0490 29.4747 -0.0453603 
-13.8330 -44.1975 9.31041 
-36.0470 -40.4375 5.86233 
20.0920 -23.4239 27.1726 
7.44800 -40.1581 15.0612 
-73.5040 21.8716 -0.857762 
-1.72699 -50.0904 7.54221 
-47.9880 -24.0836 5.21459 
18.4190 -44.3765 6.94345 
-23.4700 -42.4117 8.79773 
-39.8080 -41.8526 3.32412 
40.3990 -33.4593 1.99543 
36.2310 -38.1920 2.05033 
-69.4010 31.3562 -0.636792 
-57.7660 40.4940 0.980878 
46.3900 49.6859 3.74164 
24.0310 8.11320 25.9301 
-61.6630 45.5826 -0.692715 
-69.8250 23.7303 -0.224592 
43.8690 39.5672 4.86378 
-71.6850 -2.22670 0.604203 
-71.8730 19.6039 -0.356943 
-27.8620 -39.3064 8.66318 
-45.9920 36.1002 -1.51365 
49.8290 45.4499 4.81739 
42.0720 -41.8330 2.93700 
21.8780 -20.3414 27.6261 
-74.1550 11.7713 -0.833335 
-70.9260 14.1243 0.608404 
-69.2760 15.3228 0.617035 
38.5630 -54.2065 2.63807 
21.6200 61.5001 3.35395 
23.9930 -67.8755 2.65911 
31.6620 -64.0629 2.81069 
42.0140 -56.2030 2.84301 
55.4930 -48.1236 2.73524 
51.9390 -52.3873 3.11013 
46.5830 -58.0666 3.19582 
13.8710 -66.9140 2.97089 
11.9880 60.2662 2.79559 
44.4740 -32.1751 1.66512 
-2.27100 -56.2832 3.13953 
42.8500 -23.9278 2.08601 
2.36401 -47.7571 7.38903 
42.2040 -22.5015 2.06212 
3.80200 -40.6424 15.9810 
33.7460 -16.4133 24.7762 
-2.13599 -48.1349 7.44477 
6.08197 -56.2282 2.81993 
3.94202 69.4277 2.91268 
-1.97498 -43.9006 8.33723 
-3.29999 -44.0565 8.28578 
-13.8500 -54.3508 3.58222 
10.6350 59.3787 2.68726 
-12.0340 -54.2751 3.84874 
-14.2340 -51.8637 4.75847 
27.5190 -16.3233 26.6688 
-7.58301 -38.1889 19.4799 
-9.18298 -41.0077 13.3283 
-15.7810 -46.4647 7.74632 
-24.8510 -53.8150 4.91535 
-10.3710 -37.1062 20.5399 
-20.0540 -48.6293 5.61886 
-27.7970 -55.9272 3.91410 
-39.3420 -31.9972 7.14901 
-8.02197 -54.6584 4.08520 
-13.9780 -38.8562 15.9111 
-17.7770 -46.1218 7.33762 
-19.2270 -46.3034 7.43739 
-25.7720 -51.8576 3.37796 
-23.5680 -48.6549 5.31927 
-9.60602 -50.1773 5.97558 
26.4080 -7.98070 25.7938 
-17.6560 -32.2673 22.2687 
15.9930 49.2235 5.34627 
26.9170 -0.463600 25.8797 
-31.9960 -44.2642 3.36637 
-29.8720 -38.4732 7.58454 
-20.3580 -26.9201 22.5792 
-22.3430 -27.9615 22.0581 
25.9610 7.57420 25.6837 
-31.2060 -32.4163 10.6598 
40.9410 14.5541 4.47405 
20.3230 -19.2202 25.8068 
-33.5730 -31.9154 8.97263 
39.9590 16.0557 4.32917 
-35.6050 -32.2173 7.60119 
-25.2470 -24.5931 22.0305 
-39.5400 -25.9680 7.59183 
-39.3950 -22.8398 9.21524 
-41.0940 -0.342501 17.1698 
-16.1160 -48.1059 6.94258 
-37.8740 19.9052 6.11208 
-27.9300 -16.1987 22.3548 
23.8710 -62.5845 2.65955 
31.7590 40.9071 7.32339 
-20.4950 -53.7559 4.73829 
29.7100 41.9482 7.15920 
28.4900 42.0113 7.09814 
-6.47699 -52.1651 5.59690 
25.7730 51.5630 3.11957 
-42.0950 -1.88910 15.4056 
-3.60303 -50.9542 5.44743 
-2.80499 -50.2102 6.03601 
-41.8710 -0.473801 15.8284 
-38.0110 -35.9984 5.64076 
25.8920 44.6305 6.80423 
10.3340 -70.6802 2.84128 
8.02301 60.7160 2.90332 
22.2030 45.7329 7.32347 
8.13202 39.0848 19.0722 
-27.7800 -52.0815 3.44704 
7.11700 -38.9123 19.4523 
-24.1630 -26.6264 21.5130 
21.9120 47.2484 7.09429 
50.0040 47.3955 3.39469 
19.0070 45.9815 7.03909 
18.0990 61.5532 3.02915 
30.1190 53.7324 3.30455 
51.3600 47.7957 3.39584 
38.1170 59.1668 3.40512 
21.9530 49.3027 5.06427 
16.2660 48.1886 6.62233 
15.9550 47.6604 5.71468 
16.7790 48.9503 7.09762 
27.8770 55.6331 3.06229 
33.6790 61.1435 3.02935 
-40.0870 15.7496 5.74457 
31.7590 61.6946 2.90068 
24.1730 45.8236 6.73033 
42.4100 -28.6999 2.45991 
10.3390 48.2447 4.96472 
5.55798 -41.0493 13.9142 
12.2580 51.3042 4.81019 
-21.9080 -47.7227 5.46781 
28.0490 61.8327 3.24870 
28.4420 -59.6927 2.77115 
26.1120 59.8043 3.28234 
16.2060 51.0367 5.13720 
24.4500 59.5996 2.97213 
19.8000 57.6433 3.07715 
-34.0720 -42.2956 3.33363 
-31.7690 25.8732 15.7770 
-20.1990 -54.2640 4.03349 
0.0419922 -48.2650 7.36971 
-0.333984 -50.3462 5.42176 
-27.7000 31.7816 13.4430 
21.8670 -64.0964 2.75522 
19.8660 62.2252 3.16819 
-60.5130 9.01030 -1.64511 
-29.7470 -55.9373 2.72029 
-20.1230 -31.1731 21.8118 
19.8890 63.8688 3.53919 
26.2890 5.75100 26.2775 
22.1760 48.0304 5.80467 
46.4400 -20.8976 2.05564 
-46.0050 23.8229 -0.190520 
-5.74298 -54.3660 3.65775 
5.89398 -47.9477 7.09918 
6.09601 57.5724 2.82027 
3.42603 56.3663 2.97603 
14.4940 -68.0058 2.95909 
12.1380 61.8400 2.98086 
-49.8630 -24.1445 3.30472 
15.7460 -68.7635 2.87805 
14.3870 65.5176 3.48303 
6.17999 59.7103 2.88374 
-21.9820 -45.9431 6.02954 
6.72900 -69.6954 3.12375 
3.94299 59.8949 2.76729 
-41.7770 30.0807 -0.406368 
-24.3570 -55.4777 4.92266 
16.3250 -56.2210 2.80261 
14.4270 69.3034 2.63518 
-43.7650 29.8178 0.171702 
-40.0800 33.9306 0.110392 
53.5570 42.1683 3.47498 
-33.8940 13.7368 24.2199 
-42.6450 32.1845 -0.0156806 
-37.6570 36.0802 0.323842 
-38.1850 37.3450 0.0485490 
-8.94501 29.1319 26.6330 
-12.7460 27.2896 26.9551 
42.1150 -31.9891 1.92870 
20.4560 47.6605 7.01972 
26.5030 -13.9443 26.7499 
9.90100 68.6381 3.03779 
8.11102 67.3780 3.47110 
-12.5570 62.2612 2.66290 
-23.8560 -50.2208 4.85132 
-6.57898 -38.3666 19.5402 
11.9960 47.3708 5.12807 
25.9490 3.22460 25.5912 
11.7440 49.4617 5.26929 
-24.3000 -58.0645 3.54932 
-38.8770 -15.9847 13.8043 
-12.0280 41.9107 4.21281 
-33.3880 19.6104 21.5103 
-72.0980 27.6709 -2.08210 
18.7600 -63.7909 2.99814 
16.8140 66.0027 3.96753 
6.06299 48.8740 5.48054 
-13.9060 38.7691 15.3684 
-73.1430 24.0430 -1.10353 
-25.6760 16.1083 26.8300 
-7.45697 -38.9971 17.7907 
-37.9400 -40.2056 3.78805 
34.1110 -52.8547 2.83925 
13.9620 -64.5130 3.04638 
12.5440 65.0629 3.61551 
17.8460 45.6439 5.67291 
-18.4590 -30.6809 22.3474 
-5.36603 -39.0117 17.8891 
-74.0030 19.6846 -0.619126 
-23.4250 -56.8115 4.17629 
-0.872009 -44.9128 7.88219 
-40.6420 32.1073 -0.487169 
5.91803 50.8080 4.60559 
6.01202 39.1558 19.0607 
-56.1750 37.3911 -1.55992 
1.94098 55.7537 2.96632 
-39.8950 36.2497 0.0359198 
-5.40601 -57.7465 2.80574 
-7.30200 70.7699 3.53206 
-11.5460 40.6227 5.69971 
44.1690 -21.9844 2.01926 
-0.00799561 -41.9370 13.5245 
-0.388000 69.6565 3.42618 
-30.1250 29.5727 13.2447 
24.5770 47.9763 5.34054 
-29.6060 -53.4120 2.66055 
-23.8390 -24.3234 22.1787 
21.7280 43.6971 6.67168 
-19.3850 -56.0907 3.31377 
-31.8510 21.3443 21.6486 
4.58099 67.8956 3.27236 
-17.6120 -53.9819 3.05734 
-17.9400 -52.4447 3.87960 
-35.8510 -36.5220 5.29572 
-36.2440 37.9936 0.178823 
11.6560 66.8596 3.55905 
-37.2230 -21.6229 13.2502 
-15.8390 41.0954 4.08893 
-26.3580 -30.2006 18.3927 
38.1730 -50.9848 3.52978 
34.3740 59.2353 3.28019 
2.43500 -43.0711 11.4991 
-0.0139771 -56.2763 3.38147 
-8.01801 44.0047 4.26154 
1.51501 69.7817 3.00501 
-31.0990 29.4958 11.2365 
53.9330 43.7212 3.60572 
-21.9970 -50.1720 5.53201 
7.18298 62.4352 2.75072 
-23.4860 -52.4972 5.64443 
2.48798 58.0861 2.81884 
-3.95001 -55.9036 3.33664 
-6.42603 70.8730 3.56609 
-54.3510 38.3899 -1.54081 
-10.5460 -56.1811 3.24406 
-17.0370 62.2969 2.63412 
-11.3050 -59.8117 2.61670 
-13.3870 63.9142 2.69753 
50.1830 45.4440 3.86297 
-2.68701 68.9134 3.36806 
25.8910 -58.8943 2.59954 
31.5000 -56.3870 2.82286 
33.2630 -55.4575 2.75381 
34.4250 -54.9597 2.73773 
23.8530 65.3479 3.18963 
26.6890 -60.1518 2.67622 
29.8230 64.4238 3.31308 
32.2730 -57.9826 2.83688 
-65.9410 -208.101 -87.1452 
-27.6890 -65.4156 -1.46018 
-55.7770 20.8341 -1.66501 
37.3210 -29.4218 6.64002 
-3.70203 -40.9210 16.0814 
-48.4410 -38.6303 0.648968 
-28.6030 -30.8075 14.4016 
19.7290 -18.1030 23.9675 
39.6810 -26.2731 6.71762 
-7.78302 65.7552 2.71713 
22.6760 25.9249 22.1399 
43.0000 -3.81360 4.16919 
-58.9910 23.2609 -1.87147 
-39.2230 10.8791 19.2699 
38.7460 12.4534 11.9989 
20.9610 16.1819 24.5730 
18.9310 17.9678 23.7319 
26.8390 21.2355 22.2767 
-30.9150 36.4043 2.47380 
-59.8820 11.5024 -1.99455 
30.1550 25.9537 15.8151 
-25.6710 30.8537 18.7639 
-1.41602 30.3217 27.3400 
-50.9650 20.8381 0.301746 
39.5220 -27.4970 6.80209 
6.27698 -65.3033 2.98434 
4.28302 63.4762 2.91872 
-21.8940 30.8466 23.0669 
-23.7240 30.9114 21.0370 
-28.8520 28.5787 10.4511 
-23.3910 33.0526 18.6843 
-25.4330 32.9923 15.4072 
-1.44702 38.9428 20.7169 
-11.1040 39.0277 17.7414 
3.92902 61.3082 2.88628 
-56.5780 33.0753 -1.45028 
-58.8120 33.5297 -1.50939 
33.5830 46.3813 0.528513 
-2.94800 43.3354 10.9670 
-4.57001 43.1961 10.8586 
28.2960 -62.1696 2.66536 
26.3310 61.2797 2.99609 
28.4290 -1.01710 23.8622 
-28.8300 -17.5090 22.3239 
28.3360 3.86420 24.5197 
35.1510 38.0842 7.14565 
2.60101 67.5465 2.84489 
-26.0150 -36.4628 5.70820 
28.1040 1.83500 25.1617 
-9.94897 -42.1617 11.7588 
-24.3500 -28.5651 21.8128 
47.9790 39.6185 3.38142 
27.8650 -3.01780 23.4956 
-13.8510 31.7647 24.6446 
7.63898 -64.7959 3.09053 
5.81702 65.7838 3.16353 
2.21802 63.6852 3.28725 
6.18402 63.7484 2.99987 
-9.59601 42.0703 4.31563 
35.6460 35.7145 7.31808 
38.1220 55.9641 3.17475 
36.1470 59.8282 3.09329 
4.20801 -55.8772 3.09440 
-57.5050 22.9384 -1.83235 
-63.7480 -0.316601 0.936293 
50.3910 -18.1243 1.87356 
49.9310 -20.0551 1.97816 
0.317993 65.9805 2.90214 
22.3130 65.6826 3.04777 
-0.768982 42.9852 10.8152 
-14.4740 -36.9110 19.6999 
-76.3340 19.8727 -2.31261 
-22.2380 -54.7925 4.76722 
-39.3420 9.42380 19.3711 
-4.42603 41.3032 15.9729 
-1.69501 -58.1476 2.74422 
-4.06403 67.9285 2.73432 
8.06500 65.2863 3.03748 
-56.0950 19.0847 -1.59539 
-5.80499 -53.8989 5.29332 
-16.1060 -36.4614 19.2702 
-14.0200 -38.3390 17.4534 
39.6650 34.1198 7.13799 
-4.58600 -44.9536 6.43843 
-8.69397 -40.4610 18.1135 
35.6070 -40.0550 2.10515 
33.6700 -40.0504 2.15461 
-1.33301 -37.5683 25.0036 
-3.48602 -37.7086 24.9916 
30.5100 16.3592 20.5638 
11.8930 -25.0860 25.8237 
28.1100 -22.1511 25.6845 
-32.8460 -33.1435 2.32217 
-18.4400 -40.5996 8.50111 
-36.5250 -24.9548 6.32558 
22.0880 -15.0691 25.2296 
-60.0530 -23.6860 -1.53023 
-36.7620 -16.9919 16.1939 
-58.5000 -21.9169 -1.72707 
54.2050 -8.40240 2.28635 
52.0290 -8.13940 2.16562 
-58.0980 -19.9337 -1.86126 
44.5210 3.49320 4.56017 
-15.6350 -38.3935 15.8544 
-55.0170 -3.64610 2.63170 
57.1390 -9.40440 0.574323 
-56.8410 -19.7248 -1.86312 
36.0600 13.5867 17.0539 
23.8070 14.3110 21.6413 
23.9480 15.0357 22.0935 
26.1850 46.8875 5.23272 
31.7350 21.1858 15.9135 
28.6380 21.6253 19.5166 
32.7150 22.2061 13.6885 
30.8150 22.3300 15.1383 
28.8830 22.7375 17.2959 
27.8550 23.5677 18.0296 
24.1770 32.0890 10.3811 
-14.6540 38.8295 14.0796 
-41.1630 57.3723 0.773917 
-27.9230 -42.9247 2.08980 
28.3690 20.6215 20.2451 
26.6700 26.6626 17.0500 
28.4610 25.2869 15.6603 
-58.1750 -17.9840 -1.99795 
-34.7030 -30.8726 3.14758 
22.7760 33.6309 7.25201 
-39.0180 11.5937 15.6265 
13.0210 36.6650 15.9642 
-41.2740 12.0784 11.3790 
-15.8610 34.9588 21.5483 
28.2780 17.0699 22.4579 
25.4540 -41.3215 2.47893 
32.0340 -40.1679 2.22408 
-35.9130 -28.5011 4.17220 
18.2700 36.0646 9.62036 
40.0610 35.7558 5.60329 
51.9680 -10.5634 1.91519 
20.6470 -32.4791 24.8710 
27.0800 -41.2677 2.49161 
-26.8030 31.3653 5.90639 
30.2270 -40.2355 2.42121 
-41.0140 59.3912 0.701526 
24.0770 27.9888 19.5603 
-39.1850 59.0592 0.749670 
-43.0710 57.5821 0.598636 
-39.7290 57.3300 1.01793 
42.0680 35.4717 4.84592 
-28.6580 29.8961 7.32670 
8.30402 44.1035 4.42920 
23.9000 45.8589 5.56699 
25.9590 43.4443 5.89322 
27.9310 25.7008 17.5540 
-12.2660 39.1231 15.4442 
-9.74200 38.8848 17.2708 
27.1760 -40.0633 2.40862 
-28.2010 34.0430 6.13047 
14.7920 38.3372 9.54641 
-41.3600 -14.0578 12.9355 
20.7930 35.9263 7.49272 
-41.6710 33.9874 -0.242236 
-18.0340 29.6953 25.0053 
24.1110 33.0864 6.63512 
26.3870 30.3086 10.5275 
28.0570 28.3913 13.4251 
28.5670 28.3886 10.9340 
48.2050 -4.20130 4.07212 
25.6440 27.8412 17.4141 
25.9300 25.7981 19.5789 
24.0400 55.6110 2.85564 
3.99597 -60.5929 2.72968 
27.9420 0.265400 22.4109 
-34.6070 -33.8437 7.80382 
-12.3260 -75.3205 0.755625 
15.8620 -60.3956 2.62423 
0.216980 63.5183 2.87946 
2.33698 -61.6639 2.80581 
5.40002 -58.9542 2.61565 
46.0590 -22.2639 2.03356 
-21.6890 -49.8463 3.56752 
-23.5820 -48.2292 3.60175 
-20.2270 -46.1744 5.66434 
-4.35400 -45.2998 10.7329 
-8.04901 -45.8832 9.47490 
-3.44000 -43.9790 13.6483 
-8.13599 -44.1667 12.0676 
-11.6590 -44.0996 9.53758 
-24.4550 -44.5313 5.48077 
-5.96698 -43.6673 13.8833 
-8.19098 -43.3941 13.8696 
2.24902 -42.3669 13.6364 
12.3790 -43.0328 10.0158 
43.2630 -43.2109 0.464848 
45.4960 -43.1515 0.455963 
0.414001 67.5601 3.49906 
1.73798 -58.5898 2.59894 
-19.3690 -37.8799 17.6132 
-65.2720 -6.15860 -1.86390 
-23.6930 -35.6738 15.6535 
-59.2880 -34.2789 -1.92147 
19.8470 -37.4475 14.8258 
-7.95599 -35.4034 24.7708 
-58.0500 -33.5840 -1.97123 
-9.98499 -44.2371 9.88524 
-29.4940 -29.8857 19.0776 
-21.7910 -30.3942 21.9167 
-31.8250 -29.8419 13.3798 
-36.4740 -26.3857 5.88509 
-13.9900 -77.9997 -1.21884 
45.3450 -44.3804 0.539515 
0.380981 -31.0840 26.7988 
-25.9660 61.5337 6.55213 
47.4400 -43.4035 0.468801 
40.1660 -53.9237 0.194761 
-38.1330 -54.5929 1.07300 
-24.1640 33.9578 5.99455 
12.1900 40.6931 5.48150 
-30.8760 32.0956 4.54715 
13.8250 22.2537 22.1554 
43.2100 -44.3249 0.540399 
-52.1310 55.7382 -0.925684 
-29.9340 35.9877 3.85169 
-29.8040 -14.4534 22.0821 
-6.36200 -45.8241 9.64292 
9.96301 41.8179 5.63838 
-19.0360 57.8941 2.77435 
-20.5560 36.3411 5.23950 
-14.1110 -40.1791 13.9120 
-3.92102 44.0104 3.85292 
-24.4670 35.9147 5.89680 
-25.5650 63.2715 5.43130 
-24.9410 64.0204 4.37692 
-26.0370 64.3117 3.35730 
-22.0190 35.9790 5.22866 
-34.2530 -11.9977 20.1596 
-23.6920 59.4595 5.93594 
-25.8380 57.6292 5.14578 
-23.7190 57.9363 5.28742 
-33.6850 -50.4458 1.32308 
38.3760 14.0473 12.2062 
-9.92499 -48.2026 5.33213 
-62.2010 3.40670 -1.46025 
-24.4440 63.3728 5.92315 
-16.3830 61.8521 3.50286 
-64.1960 -3.90550 -1.99611 
-28.6460 34.2215 3.95287 
-28.0670 35.9843 3.99039 
-32.6800 14.2965 20.4567 
-18.3360 60.1150 2.62243 
-29.4040 60.8922 2.59388 
46.2600 -24.0389 1.89624 
50.3470 -29.5197 0.524592 
30.5090 -65.7562 2.85901 
27.9490 59.6059 3.14570 
-27.5880 62.0756 3.84619 
27.4270 10.3841 22.5286 
3.86200 65.3747 3.02115 
6.82300 -60.8624 2.74178 
-22.4980 57.3300 3.82239 
28.0330 -58.3259 2.67504 
25.9460 57.9358 2.94149 
-31.7340 57.3591 3.33936 
-22.6990 59.1047 4.70493 
-18.3130 -44.0472 7.52959 
-27.5430 58.2448 4.77370 
52.3910 -29.9449 0.548936 
-19.8610 65.9156 3.23525 
-26.3770 33.4168 5.46057 
-19.4840 67.8548 3.10311 
-61.6630 -34.3530 -1.91129 
43.8870 -24.2433 1.66470 
-10.4680 -46.6248 7.76374 
32.3200 15.7063 22.2733 
46.3120 -3.98830 4.10252 
-15.5230 69.8862 2.95693 
-49.7100 55.7813 -0.959886 
43.5090 55.3876 2.72751 
-58.2390 -31.4240 -2.11709 
-18.3950 66.2198 3.54555 
11.8740 26.0265 21.9461 
-4.38501 28.3939 26.7906 
10.7040 26.0377 21.6243 
-6.40302 27.3906 28.8676 
14.3260 24.1236 22.0276 
-18.0550 -45.6656 5.33494 
-57.8820 -26.4290 -1.44365 
50.9150 -27.9755 0.418783 
36.3250 19.9535 6.22549 
-25.8820 60.1028 5.96873 
-57.4990 19.2398 -1.54040 
26.2670 10.8280 21.8997 
28.1560 3.86470 25.5473 
-19.4630 -28.6857 22.5702 
48.1880 -0.316200 4.15393 
46.0840 -1.81990 3.86778 
47.8590 -2.30650 4.10053 
-12.0620 -41.8494 13.5663 
-41.3590 -18.1551 9.01732 
28.1910 -4.60880 23.5227 
-11.9960 -77.6980 -0.795918 
27.9810 57.6044 3.09524 
32.0120 57.7620 3.26025 
29.7960 59.4872 3.11100 
-30.4520 -10.3190 22.4529 
21.9400 16.0803 25.2285 
50.1300 -22.2915 1.99664 
3.59003 -58.1279 2.65070 
48.4010 -22.4801 1.87705 
34.8900 14.5627 15.5168 
36.4390 13.7088 15.4846 
10.2060 55.0307 2.92478 
42.8040 -1.31750 6.82917 
-60.5500 25.8460 -1.85691 
-31.5770 -53.7676 -1.67867 
-215.177 -166.685 -88.7518 
36.8050 5.77750 17.7846 
-22.7270 -34.8134 16.1242 
-21.5320 29.9479 23.4163 
-36.4210 -29.0537 2.35471 
43.8140 -30.3270 1.90319 
-38.1440 -26.3546 4.11328 
44.5690 -26.4081 1.96627 
48.2260 -26.8062 1.58352 
45.9240 -26.3120 1.83348 
-1.96399 -32.5189 26.6594 
-53.9090 42.0870 -1.62719 
2.10999 41.0996 14.8162 
-32.0000 -12.1858 21.8328 
-52.4430 -42.7681 -1.74570 
31.6920 -13.9308 25.4015 
-43.7790 -11.9222 9.91831 
43.7250 -14.1205 3.81640 
10.1560 56.9804 2.83118 
-32.5770 -7.94330 21.8081 
-62.0530 -10.2978 -1.68734 
-68.2400 -8.60750 -1.96338 
54.0270 -12.1494 1.98514 
44.6020 -9.97720 4.17331 
26.9440 -6.14410 26.9336 
-61.8290 19.7712 -1.85193 
43.8480 -7.76710 4.20899 
-41.4900 -4.18510 15.5112 
47.9590 -24.7458 1.94298 
28.3960 -4.41960 25.4678 
42.7430 -2.60780 5.66366 
28.4800 1.85100 23.9477 
45.7880 -0.0205002 4.09385 
48.3610 2.42850 4.32651 
38.9290 3.39720 16.0272 
-21.6110 27.4937 24.6002 
40.8490 5.12830 11.6523 
38.4800 5.78980 16.0144 
-62.1790 -7.85640 -1.92886 
38.5390 9.66320 13.6345 
36.3880 10.1792 17.5351 
-53.1260 10.9055 3.09133 
-32.1970 16.4178 19.8152 
35.9340 12.0715 17.5418 
22.6970 16.1348 23.8253 
34.6910 16.0218 14.7913 
32.6460 16.2895 17.9965 
29.3540 17.4026 21.2694 
42.6460 15.7505 4.44378 
-61.9400 17.8472 -1.76135 
32.6200 18.0680 17.3952 
46.2240 -28.3547 1.87069 
32.6110 19.9383 15.7366 
29.9410 19.4326 19.7745 
22.4160 -12.9169 25.3827 
18.2190 21.6741 23.7581 
-35.8370 21.7319 13.5733 
27.6710 23.7309 19.8633 
-10.3540 -42.5710 9.69657 
-41.2220 -6.23130 15.0988 
28.1170 19.6037 21.7873 
-1.86200 41.2718 15.3790 
-3.61298 40.9333 16.6939 
0.370972 38.9212 20.8439 
18.2620 -22.3509 23.7550 
35.8120 -11.9927 25.0784 
37.9210 8.16790 15.5636 
2.45099 39.1344 19.2296 
-217.404 -164.875 -89.1276 
45.8040 3.54480 4.24801 
-41.6610 55.5695 1.19727 
0.177979 41.5397 13.4093 
19.8260 -20.4873 21.8418 
-7.65900 39.2019 19.1290 
-219.677 -169.843 -89.5453 
9.38300 54.0611 2.99652 
3.81897 36.7924 22.9966 
-9.99103 37.6768 22.9211 
0.301025 -32.4082 26.6497 
-13.2630 32.8039 25.2521 
-3.62598 -39.3711 24.1387 
48.5390 -15.4981 2.23735 
4.20203 39.0341 19.6246 
18.8090 -20.6664 21.8945 
-43.7340 -8.39850 11.4247 
30.2400 23.9404 15.7681 
21.9660 -16.6473 23.3970 
-65.8250 -13.8811 -1.93757 
4.12097 29.3460 27.6976 
-4.39801 37.1849 23.5334 
22.9130 14.3459 22.7188 
-60.6400 33.6747 -1.68720 
-63.7860 -7.76620 -1.88369 
8.08398 55.8665 2.90213 
42.9360 -3.30010 4.70850 
-2.05603 41.5749 12.8904 
22.2510 34.3093 5.14423 
28.0600 -5.42500 26.9617 
16.4770 38.2456 8.22319 
38.8440 -10.5104 14.2967 
34.3420 20.3331 13.6475 
32.8780 26.2397 7.03925 
-218.052 -170.512 -89.4981 
34.2540 18.4398 15.1424 
-21.8860 23.6993 25.1592 
-16.5810 -41.0224 10.3613 
41.6520 17.7112 4.33893 
50.2970 -14.3808 2.39269 
30.4220 15.4964 21.7320 
33.6280 -14.1395 25.2437 
-7.66803 37.1160 22.9309 
-12.3400 35.5675 23.0356 
7.15900 32.9295 25.2666 
-17.2020 -37.6853 19.5076 
26.3870 33.6235 5.71300 
-43.8260 59.9004 -0.434622 
2.57599 40.7843 16.7110 
36.5610 7.95190 17.7602 
-46.0720 57.9038 -0.635271 
-13.0490 -37.6976 22.9725 
-16.1790 37.9416 7.24501 
46.2280 2.00350 4.47035 
31.8440 47.7986 2.89039 
-33.3680 -25.3235 17.1398 
16.2570 -63.9310 2.84571 
14.1690 61.6948 2.96807 
-24.0030 23.5406 24.9106 
42.1380 -36.1217 1.83113 
27.9080 31.6664 5.48052 
-53.7840 53.5119 -0.759778 
31.8620 23.7150 13.7403 
-1.64398 40.8858 16.6993 
14.0990 40.0699 5.88503 
44.4000 24.6022 6.82904 
-7.31799 39.2913 20.8101 
45.6700 24.2819 6.85217 
-9.83099 38.8745 19.2297 
-5.96002 37.2084 22.8498 
24.4080 35.8766 5.60231 
31.3650 19.6616 17.8598 
24.0570 33.9930 5.64613 
31.4100 17.5899 18.9654 
-39.4040 55.6684 1.14322 
-17.8670 33.0656 23.4688 
-60.2870 32.1282 -1.71502 
2.39697 29.4094 27.7260 
42.0580 26.9435 6.66780 
-56.4740 27.3986 -1.81553 
-32.2990 -6.34370 22.2888 
30.1630 22.3370 19.4116 
-215.243 -164.938 -88.8703 
-214.734 -163.980 -88.9346 
-219.346 -166.575 -89.7663 
-218.198 -166.537 -88.7653 
-219.840 -168.226 -89.6550 
-217.773 -168.665 -89.6229 
-33.7210 -27.2503 12.7815 
-214.456 -168.135 -88.6528 
-218.262 -169.175 -88.5866 
-216.161 -170.860 -88.4701 
-214.894 -170.462 -89.4980 
-218.143 -171.857 -88.9059 
-1.62598 44.5902 4.32008 
-25.6280 -33.5231 17.4792 
16.9630 -52.6254 -0.0720610 
51.3610 15.3651 5.50414 
-35.4980 23.0641 14.4207 
-24.2860 -36.4086 13.6263 
-11.8790 -44.2321 7.59100 
-35.0650 21.0746 17.2312 
-22.1270 31.5619 21.4278 
20.6410 -54.6526 0.291636 
0.489014 29.7853 27.4505 
11.9810 -48.3506 1.95014 
20.2520 -46.9816 1.87079 
-45.8090 -42.3058 1.06781 
18.1460 -46.5580 1.84250 
28.6270 -44.0430 2.15976 
18.0850 -44.4344 2.39181 
33.8020 -42.2011 1.89142 
22.5660 -44.6832 2.04021 
-17.7640 -41.9685 9.73616 
24.1500 -42.0668 2.19391 
-58.1030 28.0656 -1.53925 
-21.4930 -42.0196 7.66926 
-3.79999 39.6247 19.1882 
-15.6780 -41.3829 11.5117 
22.2940 -40.4390 2.24082 
-21.4560 -40.0990 9.31775 
52.2940 -13.9224 2.12226 
-23.5670 -38.5633 11.3833 
-27.6540 -40.3530 7.57639 
-21.8930 -36.0407 17.5404 
-14.2160 35.4963 21.5465 
-29.7190 -33.8587 9.85883 
4.34399 -28.8572 25.4465 
-17.5650 -39.5997 13.5429 
-37.5270 11.6485 19.6443 
-35.7330 -25.9343 11.0955 
-33.8900 -23.5359 19.2156 
-61.4660 -22.5553 1.01015 
-63.4210 -21.6939 0.882385 
-41.3400 -17.6659 10.9587 
-38.9190 -19.5224 15.1794 
-41.6900 -14.5602 11.5163 
-15.8110 -41.9676 9.66673 
-41.3670 -12.3816 13.0616 
47.6930 -10.8304 6.91065 
24.5860 -44.6735 2.24328 
16.0510 -44.1100 2.41322 
-40.5310 -6.54940 15.7583 
-38.4490 -6.27030 18.1574 
-43.7140 -4.25920 11.5033 
48.1530 23.5333 4.89128 
29.8080 -2.30430 23.3499 
-48.2260 49.5062 1.15313 
-43.0440 -1.75690 13.5068 
-41.9970 -42.5182 1.35970 
-48.8000 38.4347 -1.48087 
-14.2330 66.9128 2.62038 
55.6650 9.55980 5.23532 
-36.1140 17.4346 17.5013 
-13.7740 -42.8953 7.94799 
-29.7600 27.4714 17.1503 
6.18903 47.9619 2.47400 
5.74103 37.3778 22.6532 
-11.9460 37.1621 21.2516 
9.44098 -26.7476 24.9464 
-37.0360 21.8192 13.0662 
23.8340 -40.7260 1.81467 
26.3440 34.1804 4.06371 
-11.0750 48.2485 2.45491 
-0.0689697 47.8413 2.37338 
29.8070 65.5659 2.65495 
-39.4900 -18.1207 15.0674 
-17.8180 35.2468 19.6502 
19.3390 40.4903 1.89251 
24.0960 13.7874 23.5887 
22.3600 -46.7540 1.88554 
-24.9210 15.1767 21.9648 
-1.88501 39.5183 19.2593 
-35.4480 -22.0173 19.7934 
35.9810 25.0498 4.50916 
6.11102 42.0366 5.95699 
38.0890 51.9384 3.35021 
-29.7980 25.8908 17.6810 
20.1930 59.8787 3.38366 
-31.8520 -30.2950 11.3477 
19.9980 21.4245 23.7119 
24.4970 -8.51440 26.2981 
51.7340 17.5085 5.09435 
-33.8880 -28.0052 11.5489 
-39.7820 -17.9548 13.0711 
-38.0580 -10.1105 19.3927 
4.03497 44.3233 4.54249 
-41.8760 17.5730 7.47557 
12.5460 -46.3178 2.50671 
54.1360 12.1366 5.34415 
32.3830 11.6370 21.6493 
1.28802 51.8270 0.493222 
-39.5350 -13.9047 15.2440 
-37.3930 12.9915 19.2837 
18.2600 19.5196 24.1846 
25.7490 36.4190 4.36666 
-11.2680 -44.9077 4.30589 
-50.0700 50.0486 0.904398 
39.8600 55.8487 2.89754 
48.8220 14.3896 7.67862 
24.2180 11.8394 25.0924 
35.4220 61.8191 2.98782 
19.9420 19.5090 24.0445 
22.7220 35.2830 4.36040 
42.3940 -16.1402 4.03032 
-42.0080 -12.5155 11.9078 
2.11798 45.8729 4.20064 
-36.4400 -6.49520 20.0847 
42.0320 54.0928 2.88834 
-21.8270 33.3449 19.0079 
-20.0000 35.2726 17.5177 
-35.6620 19.3813 17.2311 
4.04700 45.8083 4.26682 
49.8140 15.8626 5.55306 
10.3700 41.3927 4.51264 
-15.6610 47.4186 2.48073 
19.4090 37.7517 3.07561 
-39.3460 11.4837 17.7655 
22.3830 -16.2941 25.3801 
32.0790 13.6403 21.8194 
-27.1290 30.9751 16.7908 
-17.9260 46.3363 2.21966 
-33.1240 -25.9115 15.5811 
-52.7090 48.7553 0.713887 
-8.07001 39.4662 17.5198 
-2.10797 -43.4188 14.6097 
41.0050 -20.0672 3.61152 
10.2250 44.0126 4.29128 
30.5190 -44.1666 2.04574 
-35.4270 9.92380 23.6137 
18.2250 -48.5839 1.60310 
25.9570 -8.85710 24.3919 
53.8060 15.1897 4.80154 
37.6330 57.5260 3.18536 
-18.1170 -44.0710 5.54394 
-36.2270 56.0179 1.07871 
-39.4920 17.3340 11.4911 
35.6650 57.7842 3.16850 
32.4930 9.83270 22.0998 
2.03497 53.7658 0.394816 
-10.3710 -78.0375 -0.899117 
-11.3420 52.5012 -0.0146858 
-34.0890 19.8773 19.5088 
-14.1970 52.0545 0.00686265 
-37.9060 17.5984 13.5461 
-15.7460 -40.8391 11.7919 
18.2300 19.9436 25.1347 
-55.5330 47.9854 -0.489702 
-52.9920 47.5975 0.778636 
-51.8440 47.4706 0.992058 
-4.57300 47.9184 2.03574 
5.74200 45.8682 4.11180 
-11.9010 37.5687 19.8031 
-27.3240 31.2065 15.3048 
15.5200 44.2063 2.51371 
-41.4830 -19.5971 9.12903 
12.0660 43.9970 4.05090 
-17.7070 -48.5226 7.31688 
20.3480 40.2551 2.94761 
3.95599 42.0630 5.43639 
11.9090 41.2705 4.07577 
22.0500 41.4149 1.93210 
17.8110 39.1453 2.92643 
-10.2050 37.6696 21.1674 
25.9460 38.1843 3.99456 
24.0590 -46.9858 1.78521 
44.1880 39.3466 3.58960 
23.6020 37.3969 4.09552 
-38.0020 19.4764 11.5898 
49.6170 19.5140 5.23724 
-12.0460 35.7103 21.6122 
20.8140 36.1393 4.01186 
2.14099 48.1914 2.16447 
-53.3820 35.8505 -1.48148 
40.2360 12.1959 6.00138 
-17.9570 33.5977 21.5178 
-35.7820 19.8672 15.7971 
28.1530 33.0049 3.70509 
47.3630 15.8118 7.53272 
22.1700 23.6470 23.9315 
-23.9400 31.5980 19.7353 
29.8370 31.6406 4.09806 
-25.8220 31.4771 17.8525 
26.2700 32.3627 3.67759 
31.8300 31.3261 4.15487 
28.0160 31.4104 3.80357 
-27.7220 29.4771 17.6948 
30.0150 29.8549 3.97799 
-37.4720 23.9127 9.64089 
-37.5000 21.0782 11.6649 
35.6390 23.8015 4.57764 
49.4190 21.1538 4.97119 
-35.7030 21.3091 15.7695 
-42.2680 3.30060 15.4321 
-33.9810 21.9145 17.7718 
-37.5300 19.4650 13.7488 
-37.3190 17.4201 15.5770 
21.8210 -41.8690 1.64773 
4.41602 48.5742 2.02265 
24.1320 15.6576 23.4836 
52.2490 13.5795 5.34938 
22.6940 -14.8719 23.5109 
38.8570 14.4987 5.55048 
55.1460 13.9205 4.63232 
50.1820 13.5550 7.78280 
-65.8680 11.8697 -1.93278 
51.7970 11.0859 6.99966 
55.6990 11.9118 5.08388 
19.8930 -42.6903 2.40629 
16.9960 -42.8360 2.20175 
-46.0820 -20.2176 3.41098 
-36.8230 21.7452 6.05913 
32.5570 7.66020 22.2219 
-229.560 -179.633 -87.2258 
15.7730 -66.6786 2.96726 
13.7260 63.4858 3.08265 
-232.506 -178.033 -87.4379 
-231.409 -177.082 -87.4594 
-233.020 -180.027 -87.3274 
-233.466 -181.496 -87.2484 
-229.913 -182.307 -87.0652 
27.0720 77.0380 -41.7025 
8.00500 53.6418 3.12733 
51.9470 33.9464 3.10549 
-58.2660 -29.8813 -1.90244 
-10.2980 -75.6367 0.772626 
-12.2570 49.7543 1.88869 
-10.1470 43.6192 4.02640 
-3.83002 -62.3725 1.52221 
-4.00201 -64.5276 1.36912 
-26.1430 35.9487 5.74375 
46.0940 -8.18250 4.24902 
35.6890 -16.2206 21.8205 
-14.0820 -42.4170 9.43508 
-66.0660 19.7012 -2.02382 
-13.8960 -41.8521 13.3037 
-4.11798 -44.1529 11.4244 
-16.1170 -40.1668 13.5217 
-63.9820 -34.3894 -2.12978 
-1.31598 -44.1224 11.4509 
-15.4020 -39.5361 17.7547 
-17.8610 -40.4463 11.4294 
-62.5100 -32.5307 -1.75283 
2.23401 40.6860 8.22906 
6.56897 -40.8337 24.7503 
-22.7270 -36.7506 10.8904 
-28.2240 -34.6856 6.01719 
6.56403 -38.7745 24.6140 
-25.1440 -31.4728 21.1734 
-25.9530 -31.5997 19.4749 
-2.04401 -44.6287 9.69549 
-15.9810 -50.9469 7.55937 
-41.8460 -26.2341 3.47074 
-12.9920 -39.6298 21.1980 
6.33398 -36.3701 25.4520 
-28.1340 -22.0878 21.9641 
-45.9820 -21.7477 0.518005 
25.9520 76.8910 -42.7219 
-60.1330 -17.8169 -1.62922 
-15.9720 -42.6713 7.79369 
-28.6260 -19.6973 22.4277 
-40.5330 -20.4604 4.51159 
-65.9440 -15.8919 -1.80614 
-64.0480 -208.164 -87.0528 
-36.1620 -18.4151 15.2669 
-38.8790 -19.1931 6.53280 
32.0850 -34.0609 3.95253 
14.3140 -26.6354 25.4841 
-42.4130 -16.2724 3.91650 
27.7720 -26.1038 25.3876 
-3.83600 45.9771 3.90637 
29.7850 -24.1139 25.2448 
-42.3480 -12.1480 3.64531 
-46.3460 -10.5472 2.44188 
28.0440 -24.2509 25.6390 
42.4990 12.7339 4.01809 
-34.0390 -4.35770 21.9799 
-65.7540 -0.0638008 -1.97030 
-66.7680 1.16050 -1.77834 
-62.6030 0.816000 -1.70369 
41.8770 -18.8616 8.69917 
-64.0060 1.87370 -1.80699 
-64.0660 3.35010 -1.90606 
-32.0300 -2.41400 22.1953 
-30.8140 -0.640900 22.2891 
-49.9890 -42.9269 -1.51828 
14.0600 -28.2224 26.8928 
-14.3410 -41.9432 11.7403 
12.8950 -29.9690 27.1897 
41.0080 1.49210 11.3977 
4.32501 37.6168 21.5986 
-20.1750 -38.8621 9.95100 
29.8530 55.6416 3.23544 
24.6220 75.9460 -42.6911 
26.6450 75.3210 -42.6016 
36.7040 21.6028 5.50684 
-16.5800 36.0899 6.48156 
51.9250 31.5457 3.13410 
34.1370 13.9228 17.7635 
38.2550 0.209900 17.7774 
-34.1540 20.7051 12.3606 
-34.7970 -18.5376 17.5454 
52.1320 35.5776 3.27530 
24.0760 27.5141 24.6567 
14.6210 -54.3647 0.216116 
-32.8030 -28.8694 6.98308 
-33.6680 -0.394199 21.7041 
-62.1380 -11.8295 -1.77783 
-41.4610 9.76120 11.4163 
45.8750 11.9842 4.14797 
-66.7700 -24.7382 0.956959 
-24.4550 33.7819 8.27075 
-2.21698 -40.2951 17.4621 
47.3230 27.6801 4.85420 
45.9050 28.1501 5.05209 
-60.4440 49.0798 -1.07269 
-24.8630 -36.4785 8.02959 
-66.1280 -12.0217 -1.78882 
-20.1510 42.2585 4.14974 
17.3590 -25.8668 27.1714 
37.7180 -57.9873 2.73577 
29.8370 57.3285 3.33985 
24.9640 77.6390 -42.7948 
-51.7810 38.2071 0.779260 
40.0220 -38.3524 2.24676 
38.2130 2.01510 17.5715 
28.1720 33.8204 5.90288 
31.9120 54.1230 3.62575 
-63.7050 -0.256500 -1.63031 
-63.9050 -12.3584 -1.74991 
36.2490 6.02150 19.7165 
-32.2980 26.1823 11.6580 
-30.9610 6.51740 22.3552 
45.7980 30.0143 4.88875 
11.9460 -28.4277 26.8585 
26.0860 32.0397 7.30344 
-35.9800 -30.4093 3.46431 
-36.0360 11.9356 18.5437 
0.635010 -43.6651 13.2960 
-7.75897 -46.2349 5.51438 
-12.6780 37.9536 6.92728 
-28.8010 9.88620 22.5597 
-16.1600 23.9444 24.0339 
-18.8440 32.3292 16.3001 
-8.22900 -71.8928 0.989313 
-10.2530 49.6085 1.70131 
-34.1830 1.54730 21.9049 
12.1090 47.8649 2.30781 
50.2170 33.4622 3.16596 
-61.6900 -16.2417 -1.75239 
8.15399 -45.1659 6.02765 
-56.7220 -31.3373 -1.44239 
-19.8510 33.9616 10.6546 
45.7920 9.87340 4.20823 
36.1670 8.49310 19.7867 
-17.6220 38.0006 5.83283 
-10.1720 47.9879 2.38710 
47.9530 35.7769 3.43564 
-2.14899 45.8096 4.05728 
-13.7560 -28.1638 25.3256 
-7.95599 46.0719 3.97540 
-10.0420 46.0422 3.89447 
-15.7490 40.1754 5.67209 
-61.8580 -0.528500 -1.59704 
2.72699 40.5017 9.25548 
-36.4690 19.7426 10.1971 
49.9230 31.7686 3.13720 
-8.02698 47.9320 2.38100 
-17.9120 39.9716 5.83906 
-20.0290 38.0931 5.46270 
-36.3810 14.5925 16.0534 
40.1360 25.5653 4.11580 
-17.5720 34.5691 9.66616 
-24.1780 32.1535 11.7106 
55.7680 3.27360 4.68594 
38.1280 17.8283 5.60146 
-65.7710 -3.85940 -2.16054 
-14.6640 -44.9110 4.46553 
40.2870 3.77180 13.6966 
-22.0160 34.1091 9.54315 
-52.4510 30.2500 -1.71176 
37.5990 5.96880 17.9197 
-25.4930 29.1165 21.3558 
36.3770 3.81250 20.0327 
-21.4780 38.8013 4.36458 
50.1050 11.9891 6.96312 
-64.3030 -14.1950 -1.92828 
-40.2890 17.8345 5.79075 
34.5510 1.77840 21.8052 
-25.6420 13.4681 22.3342 
34.2480 -0.0410004 22.1724 
-14.1100 42.0419 5.79462 
-38.7200 9.70050 15.5431 
34.3270 -4.16930 22.0177 
-32.1580 7.77880 22.2404 
34.3990 3.78450 21.9517 
-209.791 -140.000 -87.1170 
-62.6820 -19.8602 0.790522 
-212.465 -140.586 -87.1418 
-210.170 -142.082 -86.9883 
-213.823 -144.054 -86.9448 
-212.279 -143.895 -86.9186 
-209.682 -144.649 -86.8070 
-23.8170 -44.1338 7.44565 
11.9450 42.0944 5.66382 
51.9290 4.39330 6.62832 
53.9420 6.05180 5.22683 
35.0340 -49.0434 2.83113 
13.9730 -39.3921 22.7941 
5.88300 -77.7492 -0.453649 
25.5320 -35.5094 16.7775 
-4.07501 -42.1873 16.1389 
-9.40900 -38.1299 20.0327 
-28.9380 -6.13060 24.7051 
-44.0480 -0.440701 11.3539 
-28.3820 -72.6327 -0.937258 
4.12000 -76.5335 0.876628 
-34.1070 -48.1142 1.42503 
-1.67499 47.7472 2.15334 
0.416992 -74.2579 0.718877 
-7.75897 -42.0958 13.4486 
32.5150 -50.2306 2.82852 
-45.9530 -16.2370 5.63423 
28.3770 -66.1575 2.72560 
53.0330 -22.5471 4.90134 
26.0680 63.4582 3.22685 
27.5280 -64.0119 2.80806 
-42.1010 -44.3592 1.58963 
31.3520 63.5813 2.75519 
33.2030 -62.3624 2.65783 
-31.7600 -48.3795 1.04464 
-18.0640 50.6671 0.354030 
-40.1080 -44.0976 1.20034 
45.8250 -61.3243 0.950405 
-5.92700 -48.0468 5.38328 
-5.64502 -46.2306 5.20951 
-4.08600 -46.0169 8.72764 
-18.1150 -42.7387 6.06306 
-30.1700 -40.4048 5.19400 
-7.77197 -44.0471 9.77272 
4.11700 -46.3998 7.61169 
2.08502 -45.9621 8.74904 
-7.99701 -42.0036 16.0727 
3.60901 -45.8625 8.99014 
-7.75897 -41.5795 17.9823 
-9.57001 -41.3948 18.1288 
-27.8160 -40.1234 5.81144 
-21.8660 -38.4226 9.79584 
3.35498 -43.4619 15.1799 
-3.53400 -40.2090 18.3786 
-23.8690 -37.9163 9.45137 
53.9320 -44.1804 3.04065 
-17.8380 -42.0108 7.71829 
6.07501 -43.9417 11.5545 
6.23499 -43.5773 13.8780 
-33.7080 -35.9732 5.58330 
53.2580 -56.5148 0.706846 
-24.1880 -36.6039 9.40003 
-19.7340 -36.0956 19.8922 
-21.6020 -36.1971 15.9197 
-24.1450 -36.2554 11.5061 
10.0940 -44.3666 7.40526 
9.07800 -41.7917 18.8350 
-26.3160 -34.8839 10.0815 
-21.6540 -34.3229 19.4774 
42.6080 -52.1507 2.88382 
36.5790 -50.1480 2.83649 
41.4720 -50.5325 2.72731 
-33.8820 -38.2635 5.43605 
33.3440 -47.8606 2.71732 
-33.8150 -31.9538 7.43315 
-32.0340 -28.5525 9.80828 
-32.7360 -26.8291 10.0996 
63.3810 -24.8807 4.87716 
-55.8120 -22.2668 1.01094 
-28.6180 -24.6068 20.4043 
26.0810 -35.9672 13.8122 
-11.5460 -40.3114 18.0477 
-4.17603 -46.2801 7.51139 
-36.2340 -20.2659 11.8907 
-34.1070 -18.5708 19.7252 
22.1720 -29.8862 25.0666 
-32.2060 9.91710 22.1161 
-38.7860 -14.8965 10.0278 
21.9590 -28.4088 25.2098 
-34.8930 -20.0162 16.1918 
-40.7800 -13.1524 7.86612 
-34.2140 -37.8463 4.16378 
56.0370 -36.3606 2.72205 
23.7060 -26.3699 25.3140 
-26.0470 -36.3116 9.71848 
-34.3020 -2.31100 21.9820 
-65.6570 -3.89350 0.945338 
52.7800 -29.7703 4.78384 
27.0670 63.9560 2.65876 
30.5100 -62.2874 2.63444 
-61.9410 -1.96690 0.805684 
53.9100 -28.1203 4.88297 
35.4470 -20.3693 18.8905 
-53.4950 -0.0813007 3.55570 
-55.1840 -14.2187 2.61130 
31.3970 65.8670 2.69382 
34.7930 -63.2861 2.75260 
-46.0340 -0.0811005 9.28024 
-60.0840 6.12380 1.31847 
34.5130 -14.3167 20.3512 
32.8370 -13.2645 22.5015 
36.2450 -6.44840 19.7921 
-49.7510 47.6066 1.19236 
-38.6890 3.75080 18.0682 
-63.4860 9.42770 0.788167 
36.3480 -3.93060 19.7484 
34.5000 -9.77130 21.7003 
28.2270 1.64670 22.4772 
35.9290 -61.8067 2.68074 
-21.9100 67.7680 1.32806 
-3.80103 -47.9460 5.38978 
-6.29602 -46.1077 7.40532 
21.1440 37.0891 11.2784 
11.8120 53.4241 2.85039 
-13.6540 37.7924 17.4891 
14.1070 41.7611 5.62323 
13.6270 55.6544 2.87883 
-71.9090 -25.9776 -0.994010 
50.0020 -58.0586 1.25219 
-68.1680 -6.15510 0.919686 
36.5820 -13.8205 17.9996 
-30.0270 67.7982 -0.413280 
31.8580 45.4558 3.23343 
66.2960 -19.9184 4.61673 
64.0470 21.3398 1.59066 
-40.1350 -24.0834 5.60183 
-19.6080 -38.3362 13.7186 
-4.06702 -60.2389 1.35046 
-5.64600 -44.1988 11.2976 
42.1850 33.3735 5.20284 
-34.1460 -21.9338 15.5062 
47.7560 -52.2961 2.88606 
-25.6730 29.8333 19.6817 
44.2820 33.6740 4.92537 
23.0500 36.8226 9.49951 
-14.3400 38.0693 5.90862 
-1.45599 -45.7634 9.21640 
-59.9520 47.6548 -0.968555 
0.276001 -45.5822 9.21878 
-37.9440 -46.2595 1.47866 
-28.7600 -28.2121 15.3740 
-65.6350 38.2883 -0.579001 
48.3700 -47.9512 2.79647 
52.5310 1.89380 6.73761 
52.2140 -11.9433 7.29921 
32.0180 43.2168 5.24411 
-3.87097 -44.0727 9.91024 
-38.3850 14.6825 10.1118 
-43.5660 21.8618 5.28379 
-14.0450 -38.4291 19.6841 
36.2460 43.9971 3.16890 
-21.9420 -50.7291 -0.111499 
-32.6420 23.8461 11.9513 
6.20697 -46.0813 7.45581 
-69.3880 -8.23710 0.910555 
-53.9310 -4.07130 2.92677 
24.7540 17.3465 22.3341 
-12.2400 -69.8287 1.32577 
-14.4130 73.6592 0.770753 
-74.2130 23.3553 -1.87005 
30.1190 -26.0557 23.5687 
-43.7850 29.2018 5.03813 
-39.6950 -10.8115 10.7440 
-22.6660 -33.1407 18.5842 
32.0680 41.7297 5.10451 
-43.6470 1.60500 11.6207 
51.5520 -57.6139 0.749835 
59.9150 11.5310 1.74570 
2.11401 -43.5439 13.5613 
-25.9760 -34.4018 11.3902 
51.4750 -28.9292 4.88290 
8.27698 -75.9452 0.961060 
-39.7940 -0.333200 17.6110 
-9.96198 25.5219 26.0593 
64.0390 15.6426 2.02049 
23.9720 -28.0016 25.3274 
-32.0360 -34.0751 7.89029 
-45.5510 3.67490 9.58136 
-32.1690 -16.2913 21.7196 
-26.0590 -26.3130 21.8287 
-63.8900 -15.9915 -1.75314 
7.51898 -79.2799 -0.805401 
-25.8880 33.8617 11.6192 
-32.1450 -41.6858 3.44878 
28.2770 -6.44930 23.8636 
55.6980 5.81970 5.03743 
-30.2640 -42.3984 3.53457 
3.50000 40.4506 11.4638 
15.6960 55.3074 2.95538 
-69.7680 -6.09500 0.873098 
-0.122009 -43.8916 11.3962 
62.8400 -22.0982 4.95730 
35.9760 45.8857 3.02496 
37.9340 45.4668 3.35705 
28.2260 5.85590 25.4744 
36.0990 41.2897 4.86420 
35.8410 39.6544 5.38692 
-26.5360 -28.4581 19.8709 
-42.9570 35.4116 2.64629 
7.72699 45.9714 4.27635 
-54.2150 1.89260 3.51773 
-22.2260 34.4223 8.09340 
-28.1050 -41.9944 5.28763 
-14.0630 -40.3617 15.8814 
7.96198 41.0736 12.9485 
5.70801 -45.5999 8.95948 
-9.88000 -40.0652 19.7200 
-172.079 -147.386 -86.4629 
43.0390 -8.50190 11.7872 
-42.1470 49.5493 1.12225 
0.760010 40.4024 9.68446 
64.3570 -23.0435 4.87873 
-24.1860 -33.1981 15.5479 
-43.5120 47.5806 1.10293 
4.22803 43.8040 5.77966 
-5.62299 37.7097 21.1298 
-3.70898 37.7316 21.2672 
-61.9400 29.7625 0.668657 
-7.92603 37.4283 21.3922 
11.6820 31.7523 24.8669 
-9.85602 37.8532 19.7520 
-34.4700 22.6295 9.67837 
-8.10999 -46.2430 7.29319 
23.8520 34.8630 13.1530 
-20.5730 -22.7409 25.0482 
31.3270 24.9827 19.4727 
-51.9410 43.4212 1.23211 
40.2820 -9.00150 13.8551 
57.5430 -23.0508 4.63112 
53.4450 -25.4086 4.69600 
66.1140 13.8192 1.94146 
36.7920 20.7391 7.83976 
14.3240 24.0534 27.0612 
63.8700 13.5829 2.01520 
22.0480 51.5896 3.01160 
51.8670 -10.2296 7.43048 
32.0710 -61.2819 2.68190 
20.2080 -30.2720 25.2924 
15.7280 23.7217 26.7275 
-19.8160 31.9738 21.7230 
3.91699 -74.2184 1.05940 
-7.35797 26.1982 27.0740 
57.9950 9.69590 2.04584 
-46.0850 33.5192 2.70187 
-12.8060 24.7429 26.0484 
25.2570 16.2933 22.4137 
-45.4630 32.2754 2.88761 
53.6630 9.82790 5.40895 
-43.5920 31.1076 3.27486 
-27.6620 -26.4259 20.0897 
52.7170 6.83410 7.58878 
-34.2470 -20.3998 17.7007 
31.8030 -0.457199 23.6380 
23.2820 33.6155 16.8973 
-22.2160 -34.5195 17.6655 
36.5410 -12.1054 18.2403 
32.0860 3.67600 23.9005 
-30.8300 -25.1934 15.8840 
41.3240 2.06900 17.1726 
5.84003 -41.8077 19.1186 
-37.7630 20.1293 7.62287 
29.7390 3.54050 24.1629 
24.9310 -35.2702 20.2571 
66.3710 -9.90250 4.96735 
32.2090 1.43790 23.6612 
30.0180 -0.125000 23.2609 
50.1980 -27.8822 5.78924 
32.0260 -2.54340 23.8066 
43.7680 -4.01480 10.7335 
-29.6260 -44.0481 3.08580 
