ply
format ascii 1.0
comment PCL generated
element vertex 1318
property float x
property float y
property float z
element camera 0
property float view_px
property float view_py
property float view_pz
property float x_axisx
property float x_axisy
property float x_axisz
property float y_axisx
property float y_axisy
property float y_axisz
property float z_axisx
property float z_axisy
property float z_axisz
property float focal
property float scalex
property float scaley
property float centerx
property float centery
property int viewportx
property int viewporty
property float k1
property float k2
end_header
0.85403401 0.08653374 0.0065521337
0.92743963 -0.018403508 0.00046880095
0.92016566 -0.028923701 0.00019476071
0.84186649 -0.029592896 0.0010730007
0.85583556 0.058957767 0.0059945527
0.89219004 0.065693073 0.0054814983
0.8491239 0.05709558 0.0045471485
0.89382523 0.047253687 0.022155359
0.92321044 -0.019324912 0.00054039917
0.82786888 0.080738239 -0.00092568388
0.85006559 0.060987704 0.0038516906
0.85019588 0.010546561 0.022082075
0.87363821 -0.020824054 0.0096429177
0.88996327 0.066817895 0.0056383824
0.86096382 0.082894057 0.0027743515
0.85944402 0.061341103 0.005239503
0.86588895 -0.015179087 0.013911992
0.87607872 0.069010414 0.003852919
0.85553282 0.060914703 0.0058967965
0.85443461 0.088271536 0.0054313014
0.85505927 0.089020438 0.0043769176
0.85396332 0.089311704 0.0033572987
0.85798067 0.060979016 0.0052286563
0.84574682 0.013002259 0.020159645
0.85630834 0.084459476 0.0059359418
0.85416216 0.082629219 0.0051457775
0.85628068 0.082936294 0.0052874247
0.84631526 -0.025445834 0.0013230781
0.91837579 0.039047334 0.012206161
0.87007529 -0.023202566 0.0053321337
0.81779879 0.028406708 -0.0014602515
0.85555559 0.088372767 0.0059231468
0.86361682 0.086852089 0.003502856
0.81580418 0.021094538 -0.0019961118
0.85135376 0.05922154 0.0039528739
0.8519327 0.060984306 0.0039903927
0.84732044 0.03929653 0.020456702
0.86166441 0.085114971 0.0026224297
0.85059619 0.08589223 0.0025938775
0.92625976 0.00096114771 0.0018962367
0.93034714 -0.0045196866 0.00052459189
0.91050947 -0.040756222 0.0028590127
0.90794903 0.084605888 0.0031457043
0.85241157 0.087075606 0.0038461937
0.90742719 0.035384059 0.022528635
0.88386178 0.090374708 0.0030211522
0.88682258 -0.035862442 0.0027417801
0.85750175 0.082329981 0.0038223919
0.90803283 -0.033325907 0.0026750353
0.90594631 0.082935818 0.002941489
0.8482663 0.082359098 0.0033393602
0.857301 0.084104717 0.0047049262
0.861687 -0.019047195 0.0075295866
0.85245663 0.083244823 0.0047736974
0.93239146 -0.0049448535 0.00054893555
0.86013854 0.090915598 0.0032352495
0.85362297 0.058416769 0.0054605668
0.86051583 0.092854828 0.0031031063
0.81833673 -0.0093530165 -0.0019112863
0.92388695 0.00075669528 0.0016646964
0.86953199 -0.021624751 0.0077637406
0.91231972 0.040706296 0.022273345
0.92631161 0.021011742 0.0041025183
0.86447686 0.094886169 0.0029569285
0.83028996 0.080781326 -0.00095988583
0.92350906 0.080387563 0.0027275092
0.82176119 -0.0064240121 -0.0021170853
0.86160529 0.091219813 0.0035455499
0.89187413 0.051026523 0.021946127
0.87561524 0.053393874 0.026790636
0.89070433 0.051037688 0.021624306
0.87359679 0.052390639 0.028867554
0.89432591 0.049123585 0.022027643
0.86194533 -0.020665627 0.0053349375
0.8221181 -0.001428973 -0.0014436456
0.93091464 -0.0029754452 0.00041878331
0.91632462 0.04495348 0.0062254872
0.85411823 0.085102782 0.0059687346
0.8225013 0.044239808 -0.0015403983
0.90626699 0.03582802 0.021899709
0.90815574 0.028864674 0.025547285
0.86053717 -0.0036857389 0.022570223
0.92818791 0.024683839 0.0041539264
0.92608446 0.02318011 0.0038677829
0.92785877 0.022693545 0.0041005276
0.8679384 -0.016849441 0.013566253
0.83864063 0.0068449406 0.0090173176
0.90819067 0.020391157 0.023522656
0.86800426 -0.05269796 -0.00079591793
0.9079808 0.082604408 0.0030952399
0.91201168 0.082761973 0.0032602493
0.90979558 0.08448717 0.0031109981
0.84954846 0.014680952 0.022452889
0.90194017 0.041080266 0.025228525
0.93012989 0.0027085235 0.0019966441
0.88358968 -0.033127949 0.0026507028
0.92840099 0.0025199146 0.0018770462
0.91488981 0.039562747 0.015516826
0.91643924 0.03870881 0.015484556
0.89020556 0.080030665 0.0029247841
0.922804 0.023682483 0.0068291724
0.81944978 0.050846007 -0.0018569116
0.84842277 -0.028767642 -0.0016786704
0.66482264 -0.14168499 -0.088751845
0.91680485 0.030777525 0.017784623
0.85727304 -0.0098133916 0.016124215
0.85846776 0.054947868 0.023416312
0.84357864 -0.0040537347 0.0023547059
0.92381358 -0.0053270534 0.0019031888
0.84185624 -0.0013545684 0.0041132797
0.92456889 -0.0014081048 0.0019662688
0.92822593 -0.0018062087 0.0015835154
0.92592376 -0.0013120138 0.0018334833
0.87803566 -0.0075188898 0.02665945
0.82609123 0.067087024 -0.0016271884
0.88210994 0.066099577 0.014816199
0.84799951 0.012814174 0.021832783
0.82755744 -0.017768111 -0.0017456971
0.91169161 0.011069189 0.025401516
0.83622152 0.013077769 0.0099183153
0.92372543 0.010879548 0.0038163986
0.89015561 0.081980377 0.002831178
0.8474226 0.017056698 0.021808095
0.81794697 0.014702193 -0.0016873425
0.81175959 0.016392475 -0.0019633768
0.93402654 0.012850557 0.0019851401
0.92460239 0.015022768 0.0041733137
0.9069441 0.018855918 0.02693359
0.81817055 0.044771232 -0.0018519303
0.92384839 0.017232921 0.0042089894
0.83850998 0.020814937 0.015511236
0.92795873 0.00025417027 0.0019429795
0.90839559 0.020580415 0.025467811
0.92274284 0.022392184 0.005663658
0.90848023 0.026851045 0.023947747
0.9257884 0.02497947 0.0040938538
0.9283607 0.027428543 0.0043265102
0.91892904 0.028397242 0.016027203
0.85838914 0.052493744 0.024600156
0.92084849 0.030128341 0.011652348
0.91847974 0.030789806 0.016014442
0.81782079 0.017143615 -0.0019288595
0.91853869 0.034663219 0.01363447
0.9163878 0.035179239 0.017535128
0.82687432 0.035905544 0.0030913258
0.8478027 0.04141783 0.019815242
0.91593403 0.037071496 0.017541831
0.90269655 0.041134793 0.023825299
0.91469061 0.041021775 0.014791316
0.912646 0.04128946 0.01799652
0.90935385 0.042402569 0.021269398
0.92264622 0.040750515 0.0044437787
0.81806028 0.042847227 -0.0017613501
0.91261953 0.043067969 0.017395241
0.92622352 -0.0033546586 0.0018706929
0.91261131 0.044938348 0.015736572
0.9099406 0.04443261 0.019774498
0.90241629 0.012083109 0.025382731
0.89821875 0.046674106 0.023758147
0.84416318 0.046731886 0.013573258
0.90767121 0.04873085 0.01986328
0.86964566 -0.017571012 0.0096965684
0.83877808 0.018768687 0.015098755
0.90811712 0.044603709 0.021787286
0.87813848 0.066271827 0.015378994
0.87638676 0.065933257 0.016693896
0.88037091 0.063921161 0.020843867
0.89826238 0.0026490593 0.02375504
0.91581213 0.01300727 0.025078364
0.91792053 0.033167925 0.01556364
0.88245118 0.064134397 0.019229559
0.66259629 -0.13987461 -0.08912757
0.92580354 0.028544778 0.0042480133
0.83833903 0.080569468 0.001197273
0.88017821 0.066539727 0.013409304
0.89982563 0.0045126746 0.021841764
0.87234116 0.064201884 0.01912904
0.66032261 -0.14484288 -0.089545287
0.88938302 0.079061136 0.0029965187
0.8838191 0.061792362 0.022996552
0.87000918 0.062676765 0.022921098
0.88030112 -0.007408163 0.026649727
0.86673689 0.057803858 0.025252122
0.87637436 -0.014371128 0.024138708
0.92853951 0.0095019015 0.0022373535
0.88420171 0.06403406 0.019624595
0.89880913 0.0043335999 0.021894516
0.83626598 0.016601466 0.01142473
0.91024017 0.048940405 0.015768051
0.90196633 0.0083526624 0.023396956
0.81417477 0.01111888 -0.001937572
0.88412142 0.054346003 0.027697574
0.87560219 0.062184867 0.023533449
0.90291286 0.039345924 0.022718802
0.81936032 0.05867473 -0.0016871997
0.81621438 0.017233817 -0.0018836902
0.88808382 0.080866516 0.0029021252
0.92293578 0.021699853 0.0047084973
0.87794387 0.066574939 0.0128904
0.90225053 0.059309281 0.0051442333
0.90806043 0.019574959 0.026961662
0.89647657 0.063245609 0.00822319
0.91884369 0.014489643 0.014296712
0.91434199 0.045333099 0.013647547
0.91287827 0.051239669 0.0070392522
0.66194803 -0.14551191 -0.089498132
0.91425407 0.043439798 0.015142447
0.85811365 0.048699252 0.02515921
0.86341894 -0.01602242 0.01036132
0.92165196 0.042711198 0.0043389336
0.93029737 0.010619211 0.0023926932
0.91042167 0.040496413 0.021731954
0.91362786 0.010860462 0.025243685
0.87233156 0.062115993 0.022930913
0.8676604 0.060567517 0.023035599
0.88715899 0.057929497 0.025266591
0.86279845 -0.012685259 0.019507645
0.90638745 0.0586235 0.0057129972
0.83617359 0.084900394 -0.00043462156
0.88257599 0.065784261 0.016710954
0.91656125 0.032951906 0.017760215
0.83392817 0.08290378 -0.00063527131
0.86695111 -0.012697596 0.022972519
0.86382085 0.062941618 0.0072450088
0.92622828 0.027003465 0.0044703484
0.91184443 0.07279858 0.0028903871
0.84663159 -0.00032351605 0.017139813
0.89625651 -0.038931046 0.0028457132
0.89416909 0.086694799 0.0029680664
0.85599691 0.048540603 0.02491064
0.9221378 -0.011121699 0.001831128
0.90790784 0.05666637 0.0054805237
0.82621586 0.078511894 -0.0007597779
0.91186208 0.048715025 0.013740332
0.87835604 0.065885849 0.016699323
0.89409924 0.065069862 0.0058850269
0.92440009 0.049602207 0.0068290439
0.87268168 0.064291336 0.020810138
0.92567021 0.049281903 0.0068521718
0.87016851 0.063874453 0.019229691
0.87403983 0.062208407 0.022849824
0.90440845 0.0608766 0.0056023062
0.91136515 0.044661615 0.017859787
0.90405726 0.058993019 0.0056461338
0.91140962 0.042589903 0.018965386
0.84059566 0.080668375 0.0011432205
0.8621335 0.058065619 0.023468848
0.81971318 0.057128191 -0.0017150184
0.88239729 0.054409351 0.027726011
0.92205834 0.051943481 0.0066677989
0.82352644 0.052398626 -0.0018155265
0.84770119 0.01865631 0.022288773
0.91016328 0.047337048 0.019411629
0.66475707 -0.13993785 -0.088870279
0.66526634 -0.13898033 -0.088934571
0.66065443 -0.14157538 -0.089766271
0.66180199 -0.14153685 -0.088765278
0.66015977 -0.14322641 -0.089654975
0.66222733 -0.14366493 -0.089622945
0.84627873 -0.0022502854 0.012781522
0.66554356 -0.14313546 -0.088652767
0.66173804 -0.14417523 -0.088586614
0.66383928 -0.14586005 -0.088470109
0.66510624 -0.14546196 -0.089497961
0.66185731 -0.14685717 -0.088905945
0.8783744 0.069590226 0.0043200762
0.8543722 -0.008523114 0.017479163
0.89696306 -0.027625363 -7.2061048e-05
0.93136054 0.040365148 0.0055041364
0.84450185 0.048064061 0.014420735
0.85571361 -0.011408558 0.013626338
0.86812079 -0.019232132 0.0075910031
0.84493494 0.046074644 0.017231192
0.8578735 0.056561857 0.021427808
0.90064079 -0.02965261 0.00029163566
0.88048863 0.054785341 0.027450515
0.89198071 -0.023350609 0.0019501443
0.90025228 -0.021981636 0.0018707949
0.83419096 -0.017305786 0.0010678096
0.89814645 -0.021557964 0.0018424988
0.90862691 -0.019042959 0.0021597589
0.89808488 -0.019434372 0.0023918129
0.91380185 -0.017201122 0.0018914244
0.90256613 -0.019683179 0.0020402141
0.86223608 -0.016968502 0.009736157
0.90415043 -0.017066846 0.0021939131
0.82189697 0.053065557 -0.0015392479
0.85850739 -0.017019607 0.0076692612
0.87620008 0.064624719 0.019188199
0.86432177 -0.016382879 0.011511699
0.9022938 -0.015438955 0.0022408173
0.85854387 -0.015099036 0.0093177548
0.93229377 0.011077603 0.0021222595
0.85643268 -0.01356331 0.011383283
0.85234553 -0.015353004 0.0075763911
0.85810703 -0.011040704 0.017540369
0.86578369 0.060496289 0.021546477
0.85028094 -0.0088586733 0.0098588271
0.88434368 -0.0038572361 0.025446534
0.86243457 -0.014599703 0.013542863
0.84247261 0.036648493 0.019644281
0.84426671 -0.00093433115 0.011095527
0.84610957 0.0014641234 0.019215643
0.81853384 0.0024447502 0.0010101496
0.81657875 0.0033061437 0.00088238466
0.83865994 0.0073341033 0.010958747
0.84108114 0.0054776194 0.01517936
0.83831 0.010439754 0.011516308
0.86418879 -0.016967572 0.0096667316
0.8386327 0.012618395 0.013061613
0.92769307 0.014169634 0.0069106496
0.90458578 -0.019673513 0.0022432806
0.89605099 -0.019110003 0.0024132216
0.83946919 0.018450605 0.015758278
0.84155148 0.018729713 0.0181574
0.83628583 0.020740841 0.011503289
0.92815268 0.048533261 0.0048912759
0.90980834 0.022695713 0.023349905
0.83177376 0.074506231 0.0011531333
0.83695644 0.023243062 0.013506783
0.83800322 -0.017518209 0.0013597009
0.83119965 0.063434675 -0.0014808687
0.86576658 0.091912746 0.0026203801
0.93566501 0.03455979 0.0052353209
0.84388614 0.042434648 0.017501319
0.86622584 -0.017895268 0.0079479935
0.85024041 0.052471425 0.01715032
0.88618946 0.072961882 0.0024739956
0.885741 0.06237781 0.022653192
0.86805397 0.062162064 0.021251561
0.88944089 -0.0017475842 0.024946371
0.84296352 0.046819158 0.013066185
0.90383434 -0.015725987 0.0018146662
0.90634406 0.059180386 0.0040637078
0.86892515 0.073248528 0.0024549086
0.87993085 0.072841339 0.0023733785
0.90980738 0.090565927 0.002654948
0.84051043 0.0068792626 0.015067399
0.86218184 0.06024684 0.019650232
0.89933908 0.065490313 0.001892506
0.90409595 0.03878741 0.023588672
0.90235966 -0.021754039 0.0018855406
0.85507894 0.040176746 0.02196485
0.878115 0.06451834 0.019259343
0.84455246 0.002982669 0.01979336
0.91598052 0.050049823 0.0045091566
0.88611144 0.067036562 0.005956992
0.91808891 0.076938361 0.0033502092
0.85020185 0.050890751 0.017680978
0.90019286 0.084878676 0.0033836619
0.84814841 -0.0052949721 0.011347713
0.89999783 0.046424475 0.023711931
0.90449673 0.016485555 0.026298132
0.93173432 0.042508502 0.0050943485
0.84611207 -0.0030051589 0.01154889
0.84021771 0.0070451866 0.013071086
0.84194213 0.014889462 0.019392734
0.88403469 0.069323294 0.0045424863
0.83812416 0.042572953 0.0074755694
0.89254552 -0.02131775 0.0025067057
0.93413603 0.037136581 0.0053441497
0.91238326 0.036636975 0.021649279
0.88128811 0.076827042 0.00049322197
0.84046489 0.011095286 0.015244024
0.8426072 0.03799149 0.019283703
0.89826047 0.044519573 0.024184629
0.90574878 0.061418995 0.004366661
0.86873204 -0.019907657 0.0043058903
0.82992959 0.075048588 0.00090439845
0.91986001 0.080848694 0.002897538
0.9288215 0.039389595 0.0076786242
0.9042179 0.036839433 0.02509238
0.91542202 0.086819053 0.002987816
0.89994174 0.044508994 0.024044454
0.90272158 0.060283035 0.0043604043
0.92239439 0.0088597592 0.0040303241
0.83799237 0.01248454 0.011907794
0.8821184 0.07087294 0.0042006397
0.84356028 0.018504767 0.020084672
0.92203164 0.079092793 0.002888341
0.85817277 0.058344949 0.019007858
0.86000031 0.060272623 0.017517749
0.8443383 0.044381294 0.017231066
0.88404739 0.070808262 0.004266819
0.92981398 0.04086259 0.0055530607
0.89036983 0.066392727 0.0045126448
0.8643387 0.072418585 0.0024807295
0.89940864 0.062751666 0.0030756088
0.84065402 0.036483686 0.017765507
0.90238303 0.0087058768 0.025380144
0.91207939 0.038640294 0.021819437
0.85287088 0.055975143 0.016790846
0.86207443 0.071336247 0.0022196621
0.84687614 -0.0009115492 0.015581098
0.82729125 0.073755264 0.00071388728
0.87193036 0.064466208 0.017519807
0.87789243 -0.018418793 0.014609737
0.92100471 0.00493275 0.0036115248
0.89022493 0.069012649 0.004291276
0.91051912 -0.019166568 0.0020457443
0.84457272 0.034923751 0.023613656
0.89822489 -0.023583917 0.0016031009
0.9059571 0.016142894 0.024391938
0.9338063 0.040189732 0.0048015402
0.91763335 0.082526006 0.003185356
0.86188269 -0.019071022 0.0055439407
0.84377319 0.081017919 0.0010787076
0.84050763 0.042333953 0.011491143
0.91566539 0.082784154 0.0031684954
0.91249293 0.034832731 0.022099791
0.88203502 0.07876578 0.00039481567
0.86962903 -0.053037547 -0.00089911709
0.86865777 0.077501163 -1.4685843e-05
0.84591144 0.044877335 0.019508781
0.86580288 0.077054448 6.8626541e-06
0.84209448 0.042598445 0.013546114
0.86425364 -0.015839064 0.01179186
0.89823049 0.044943597 0.025134655
0.82446712 0.072985403 -0.00048970158
0.82700807 0.072597533 0.00077863637
0.82815558 0.072470628 0.00099205761
0.87542713 0.072918393 0.0020357373
0.88574171 0.070868202 0.0041117962
0.86809951 0.062568747 0.019803114
0.85267562 0.05620645 0.015304849
0.89552027 0.069206312 0.0025137058
0.83851707 0.0054029329 0.0091290269
0.89206612 0.068997033 0.0040509021
0.86229277 -0.023522599 0.0073168832
0.90034795 0.06525512 0.0029476141
0.88395625 0.067063041 0.005436386
0.8919093 0.066270478 0.0040757712
0.90204978 0.066414908 0.0019320986
0.89781111 0.064145342 0.0029264314
0.86979455 0.06266956 0.021167405
0.90594572 0.063184313 0.0039945645
0.90405875 -0.021985844 0.0017852124
0.9241876 0.064346559 0.0035896001
0.90360224 0.062396884 0.0040955218
0.84199792 0.04447636 0.011589837
0.92961699 0.044514026 0.0052372403
0.86795378 0.06071027 0.021612167
0.90081358 0.061139345 0.0040118559
0.88214123 0.073191397 0.00216447
0.82661802 0.060850497 -0.0014814815
0.92023641 0.037195869 0.0060013821
0.86204278 0.058597706 0.021517821
0.84421837 0.044867173 0.01579709
0.9081527 0.058004852 0.003705086
0.92736346 0.040811844 0.0075327167
0.90216964 0.048646983 0.023931544
0.85605979 0.05659797 0.019735305
0.90983659 0.056640621 0.0040980633
0.85417753 0.056477103 0.017852487
0.90627015 0.057362732 0.0036775894
0.91183037 0.056326121 0.0041548749
0.90801609 0.05641045 0.0038035682
0.85227793 0.054477055 0.017694816
0.91001451 0.054854952 0.0039779851
0.84252763 0.048912734 0.0096408892
0.84250015 0.046078227 0.011664925
0.91563898 0.048801489 0.0045776418
0.9294191 0.046153802 0.0049711862
0.84429669 0.046309136 0.015769538
0.8377322 0.028300585 0.015432148
0.84601855 0.046914529 0.017771849
0.84247023 0.04446495 0.01374878
0.84268081 0.042420056 0.015576983
0.9018206 -0.016868999 0.0016477315
0.88441598 0.073574185 0.0020226541
0.90413237 0.040657599 0.023483625
0.93224919 0.038579516 0.0053493804
0.90269423 0.010128063 0.023510899
0.91885656 0.039498728 0.0055504814
0.93514574 0.038920481 0.0046323193
0.93018198 0.038554985 0.0077828001
0.81413174 0.036869656 -0.0019327815
0.93179673 0.036085896 0.0069996589
0.93569875 0.036911797 0.0050838762
0.89989293 -0.017690305 0.0024062893
0.89699632 -0.017836025 0.0022017527
0.83391833 0.0047824541 0.0034109768
0.8431766 0.046745155 0.006059126
0.91255736 0.032660235 0.022221912
0.65043992 -0.15463348 -0.08722575
0.8957727 -0.041678604 0.0029672626
0.89372623 0.088485755 0.0030826495
0.64749432 -0.15303265 -0.08743792
0.64859068 -0.15208161 -0.08745937
0.6469804 -0.15502657 -0.087327369
0.64653367 -0.1564963 -0.087248378
0.650087 -0.15730695 -0.087065175
0.90707207 0.10203818 -0.041702494
0.88800466 0.07864178 0.0031273251
0.93194664 0.058946375 0.0031054874
0.82173389 -0.0048813014 -0.001902439
0.8697021 -0.050636731 0.00077262596
0.86774325 0.074754305 0.0018886891
0.8698532 0.068619184 0.0040263967
0.87616986 -0.03737247 0.0015222061
0.87599814 -0.039527584 0.0013691182
0.8538574 0.060948737 0.0057437536
0.92609364 0.016817462 0.0042490223
0.91568869 0.0087793628 0.021820499
0.86591786 -0.017416999 0.00943508
0.81393415 0.044701241 -0.0020238247
0.86610407 -0.016852126 0.013303725
0.87588209 -0.019152865 0.01142444
0.86388254 -0.015166786 0.013521743
0.81601757 -0.0093894312 -0.0021297766
0.8786841 -0.019122366 0.011450878
0.8645978 -0.014536114 0.017754709
0.86213899 -0.015446287 0.011429438
0.81748986 -0.0075307153 -0.0017528321
0.88223398 0.06568601 0.0082290648
0.88656926 -0.015833704 0.024750322
0.85727286 -0.011750561 0.01089038
0.85177571 -0.0096856225 0.0060171923
0.88656443 -0.01377447 0.024614029
0.85485578 -0.0064727743 0.021173401
0.85404748 -0.0065996652 0.019474911
0.87795651 -0.019628741 0.0096954899
0.8640188 -0.025946885 0.0075593721
0.83815444 -0.0012340971 0.0034707442
0.86700803 -0.014629795 0.021198012
0.88633436 -0.011370064 0.025452033
0.85186625 0.0029122429 0.021964069
0.83401811 0.0032523158 0.00051800499
0.90595222 0.10189082 -0.042721871
0.81986654 0.0071831513 -0.0016292174
0.86402798 -0.017671337 0.0077936877
0.85137391 0.0053027505 0.02242768
0.83946687 0.0045395521 0.0045115873
0.81405628 0.0091081271 -0.0018061362
0.81595194 -0.18316375 -0.08705277
0.84383768 0.0065848804 0.015266922
0.8411206 0.0058069355 0.0065328046
0.91208506 -0.0090608541 0.0039525349
0.89431387 -0.0016354406 0.025484106
0.83758676 0.008727584 0.0039165011
0.90777153 -0.0011038153 0.025387635
0.87616384 0.070977047 0.0039063678
0.90978515 0.0008860536 0.025244793
0.83765215 0.012851958 0.0036453055
0.83365387 0.014452762 0.0024418817
0.90804356 0.0007490518 0.025639046
0.92249888 0.037733879 0.0040180916
0.84596145 0.020642333 0.021979868
0.81424564 0.024936223 -0.0019703035
0.81323218 0.026160497 -0.001778344
0.81739658 0.02581604 -0.0017036897
0.92187685 0.0061383611 0.0086991722
0.81599432 0.026873726 -0.0018069919
0.815934 0.028350087 -0.0019060597
0.84796953 0.022586012 0.02219528
0.84918618 0.024359137 0.022289108
0.83001077 -0.017926894 -0.0015182832
0.89406019 -0.0032223975 0.026892772
0.86565864 -0.016943177 0.011740314
0.89289516 -0.0049690059 0.027189692
0.92100793 0.026492093 0.011397725
0.88432521 0.062616818 0.021598551
0.8598246 -0.013862084 0.009951002
0.90985322 0.08064165 0.0032354405
0.90462172 0.10094642 -0.042691063
0.90664506 0.10032123 -0.042601589
0.9167037 0.046602815 0.0055068429
0.86342037 0.061089948 0.0064815609
0.93192548 0.05654572 0.0031341028
0.9141373 0.038922809 0.017763486
0.91825509 0.025209902 0.017777447
0.84584558 0.045705136 0.012360573
0.84520274 0.0064623975 0.01754538
0.93213177 0.060577579 0.0032753004
0.90407556 0.052514147 0.024656696
0.89462078 -0.029364659 0.00021611646
0.84719676 -0.0038693664 0.0069830832
0.84633237 0.024605798 0.02170407
0.81786227 0.013170459 -0.0017778272
0.83853889 0.034761213 0.011416307
0.92587477 0.03698419 0.0041479724
0.81323028 0.00026180735 0.0009569595
0.85554528 0.058781933 0.008270747
0.87778294 -0.0152951 0.017462132
0.92732334 0.052680064 0.0048541999
0.92590469 0.05315008 0.005052093
0.81955636 0.074079812 -0.0010726891
0.85513735 -0.011478504 0.0080295866
0.81387174 0.012978281 -0.0017888159
0.8598488 0.067258507 0.0041497359
0.89735907 -0.00086684478 0.027171358
0.9177177 -0.032987334 0.0027357698
0.90983731 0.082328491 0.0033398487
0.90496439 0.10263891 -0.042794839
0.82821888 0.063207097 0.0007792596
0.92002189 -0.01335239 0.0022467631
0.91821325 0.027015099 0.017571546
0.90817195 0.058820449 0.0059028845
0.91191226 0.079123028 0.0036257522
0.81629491 0.024743471 -0.0016303073
0.81609505 0.012641607 -0.0017499072
0.91624886 0.031021513 0.019716483
0.84770167 0.051182341 0.011658015
0.84903872 0.031517379 0.022355216
0.92579788 0.055014297 0.0048887529
0.89194638 -0.0034276815 0.026858501
0.90608621 0.057039719 0.0073034363
0.84401995 -0.0054092566 0.0034643132
0.8439641 0.03693556 0.018543735
0.88063508 -0.018665113 0.013295955
0.8722412 -0.021234924 0.0055143787
0.86732155 0.062953629 0.0069272765
0.85119909 0.034886234 0.022559738
0.86383998 0.04894441 0.024033925
0.86115563 0.057329208 0.016300065
0.87177104 -0.046892755 0.00098931266
0.86974698 0.074608512 0.0017013109
0.84581697 0.026547274 0.021904949
0.89210862 0.072864927 0.0023078071
0.93021739 0.058462176 0.0031659631
0.81830978 0.0087583391 -0.0017523916
0.88815349 -0.020165948 0.006027645
0.82327777 -0.0063372832 -0.0014423936
0.86014873 0.058961578 0.010654595
0.9257918 0.034873433 0.0042082318
0.91616738 0.033493061 0.019786652
0.8623777 0.063000567 0.0058328286
0.8698284 0.072987899 0.0023870952
0.92795324 0.060776882 0.0034356436
0.87785083 0.07080958 0.0040572793
0.86624402 -0.0031637822 0.025325563
0.87204432 0.071071915 0.0039753988
0.86995828 0.071042225 0.0038944751
0.8642506 0.065175369 0.0056720949
0.81814212 0.024471458 -0.0015970371
0.8827275 0.06550169 0.0092554772
0.84353054 0.044742603 0.010197145
0.92992258 0.056768551 0.003137198
0.87197304 0.072932012 0.0023809997
0.86208779 0.064971618 0.0058390629
0.85997152 0.063093089 0.0054627038
0.84361911 0.039592478 0.01605339
0.92013556 0.050565325 0.0041158004
0.86242765 0.059569113 0.0096661579
0.85582167 0.057153463 0.011710593
0.93576759 0.028273616 0.0046859384
0.91812795 0.042828333 0.005601461
0.81422895 0.021140633 -0.002160538
0.86533582 -0.019910969 0.0044655339
0.92028731 0.028771808 0.01369664
0.85798442 0.059109073 0.0095431525
0.82754916 0.055250011 -0.0017117589
0.91759849 0.030968755 0.017919749
0.85450697 0.054116521 0.021355782
0.91637665 0.028812485 0.020032691
0.85852194 0.063801326 0.0043645808
0.93010473 0.036989138 0.0069631226
0.81569701 0.010804964 -0.0019282765
0.83971089 0.042834472 0.0057907514
0.9145512 0.026778445 0.021805201
0.8543576 0.038468108 0.022334171
0.91424757 0.024959039 0.022172401
0.86589032 0.067041889 0.0057946155
0.8412798 0.034700539 0.015543069
0.91432661 0.020830711 0.022017706
0.84784228 0.032778822 0.022240447
0.91439867 0.028784545 0.021951701
0.67020869 -0.11499953 -0.087117039
0.8173182 0.0051398296 0.0007905222
0.66753471 -0.11558611 -0.087141849
0.66982985 -0.11708196 -0.086988337
0.66617709 -0.1190539 -0.086944818
0.66772091 -0.11889549 -0.08691857
0.67031753 -0.11964902 -0.086806975
0.85618347 -0.019133769 0.0074456506
0.89194483 0.067094386 0.005663815
0.93192893 0.029393317 0.0066283178
0.93394244 0.031051768 0.0052268258
0.91503358 -0.024043374 0.0028311268
0.89397287 -0.014392122 0.022794137
0.88588256 -0.05274919 -0.00045364897
0.90553236 -0.010509427 0.016777521
0.87592471 -0.01718734 0.016138932
0.87059081 -0.013129943 0.020032749
0.8510617 0.01886935 0.024705144
0.83595198 0.024559278 0.011353864
0.85161781 -0.047632668 -0.0009372576
0.88412035 -0.051533468 0.00087662798
0.84589291 -0.023114195 0.0014250273
0.87832505 0.072747216 0.0021533438
0.88041729 -0.049257871 0.00071887742
0.87224054 -0.017095808 0.013448556
0.91251504 -0.025230564 0.0028285242
0.83404708 0.0087629473 0.0056342343
0.90837675 -0.041157484 0.0027256019
0.93303335 0.0024529505 0.004901344
0.90606785 0.088458166 0.0032268493
0.9075281 -0.039011899 0.0028080591
0.83789867 -0.019359235 0.0015896315
0.9113521 0.088581301 0.0027551888
0.91320288 -0.037362386 0.0026578319
0.84823978 -0.023379495 0.0010446361
0.86193639 0.075667143 0.00035403034
0.83989227 -0.01909757 0.0012003389
0.92582512 -0.036324278 0.00095040462
0.87407273 -0.023046847 0.0053832782
0.87435454 -0.021230649 0.0052095088
0.8759141 -0.021016853 0.008727639
0.86188483 -0.017738707 0.0060630571
0.84983027 -0.015404786 0.0051940023
0.87222821 -0.019047139 0.0097727226
0.88411725 -0.021399774 0.0076116892
0.8820852 -0.020962123 0.0087490398
0.87200332 -0.017003559 0.01607269
0.88360894 -0.020862531 0.0089901369
0.87224114 -0.016579546 0.017982267
0.87042958 -0.016394811 0.018128827
0.85218388 -0.015123424 0.005811438
0.85813433 -0.013422572 0.0097958408
0.88335538 -0.018461917 0.01517986
0.87646633 -0.015208982 0.018378573
0.85613149 -0.012916287 0.0094513679
0.93393189 -0.019180436 0.0030406488
0.86216164 -0.017010774 0.0077182935
0.88607502 -0.018941667 0.011554513
0.88623488 -0.018577289 0.013877986
0.84629244 -0.010973197 0.0055833003
0.93325818 -0.03151482 0.00070684572
0.85581213 -0.01160386 0.0094000287
0.86026603 -0.011095647 0.019892212
0.8583982 -0.011197119 0.015919676
0.85585523 -0.011255357 0.011506118
0.89009398 -0.01936662 0.0074052601
0.88907778 -0.016791718 0.018834997
0.85368359 -0.0098838815 0.010081469
0.85834563 -0.0093228584 0.019477449
0.92260772 -0.027150739 0.0028838227
0.91657931 -0.025148006 0.0028364859
0.92147225 -0.025532493 0.0027273092
0.84611762 -0.013263484 0.0054360488
0.91334432 -0.022860646 0.0027173215
0.84618479 -0.0069538318 0.0074331546
0.84796649 -0.0035524776 0.0098082758
0.84726429 -0.0018291312 0.010099633
0.94338083 0.00011931737 0.0048771561
0.82418787 0.0027332201 0.001010943
0.85138243 0.00039324397 0.020404324
0.90608138 -0.010967219 0.013812225
0.8684544 -0.015311356 0.018047722
0.87582421 -0.021280067 0.007511389
0.8437655 0.0047340831 0.011890687
0.84589309 0.0064291651 0.019725192
0.90217221 -0.0048862388 0.025066596
0.84779388 0.034917086 0.022116061
0.84121418 0.010103453 0.010027849
0.90195918 -0.0034087882 0.025209758
0.84510684 0.0049838307 0.016191848
0.83922046 0.011847626 0.007866119
0.8457858 -0.012846299 0.0041637789
0.93603659 -0.011360639 0.0027220463
0.9037056 -0.0013698607 0.025314013
0.85395312 -0.011311593 0.0097184815
0.84569764 0.022688976 0.021982046
0.8143425 0.021106465 0.00094533793
0.93278033 -0.0047703106 0.0047838408
0.90706724 0.088956013 0.0026587613
0.91050982 -0.037287425 0.0026344447
0.81805927 0.023033114 0.00080568431
0.93390995 -0.0031202715 0.0048829708
0.91544652 0.0046307347 0.018890517
0.82650536 0.024918728 0.0035557027
0.82481647 0.01078126 0.0026113023
0.91139716 0.090867013 0.002693824
0.91479337 -0.038286101 0.0027525977
0.83396649 0.024918923 0.0092802411
0.81991613 0.031123834 0.0013184695
0.91451275 0.010683268 0.020351186
0.91283703 0.011735496 0.022501498
0.91624534 0.01855162 0.019792076
0.83024913 0.072606549 0.0011923554
0.84131092 0.028750824 0.018068245
0.81651372 0.034427688 0.00078816689
0.9163481 0.021069404 0.019748444
0.91450024 0.015228705 0.021700311
0.90822691 0.026646735 0.022477174
0.91592896 -0.036806703 0.0026807375
0.85809046 0.092768036 0.0013280564
0.87619901 -0.022945959 0.0053897831
0.8737036 -0.021107662 0.007405322
0.90114391 0.062089104 0.011278426
0.89181238 0.078424074 0.0028503947
0.866346 0.062792398 0.017489146
0.89410722 0.066761084 0.0056232349
0.89362651 0.080654427 0.0028788291
0.80809075 -0.00097760151 -0.00099401025
0.93000239 -0.033058591 0.0012521874
0.81183237 0.018844942 0.00091968611
0.91658199 0.011179504 0.017999619
0.84997302 0.092798181 -0.00041328045
0.91185778 0.070455812 0.0032334265
0.94629645 0.0050815977 0.0046167322
0.94404721 0.046339784 0.0015906582
0.83986473 0.0009166387 0.005601828
0.86039156 -0.013336163 0.013718556
0.87593323 -0.03523894 0.0013504568
0.87435371 -0.019198759 0.011297649
0.92218512 0.058373488 0.0052028378
0.84585416 0.0030661672 0.015506157
0.92775577 -0.027296057 0.0028860595
0.85432738 0.054833271 0.01968166
0.9242819 0.058674023 0.0049253716
0.90305024 0.061822601 0.0094995098
0.86566025 0.063069291 0.0059086205
0.8785435 -0.020763431 0.0092163971
0.82004786 0.072654776 -0.00096855458
0.88027644 -0.020582177 0.0092187831
0.84205574 -0.0212595 0.0014786634
0.85123956 -0.0032120557 0.015374017
0.81436461 0.063288271 -0.00057900051
0.92836958 -0.022951167 0.0027964662
0.93253136 0.026893795 0.0067376089
0.93221426 0.013056654 0.0072992067
0.91201812 0.068216823 0.0052441121
0.87612915 -0.019072693 0.009910237
0.84161484 0.039682508 0.010111811
0.83643359 0.046861801 0.0052837948
0.86595547 -0.013429126 0.019684123
0.91624552 0.068997107 0.0031689035
0.8580578 -0.025729099 -0.00011149901
0.84735757 0.048846092 0.011951305
0.88620675 -0.021081282 0.0074558072
0.81061232 0.016762888 0.00091055525
0.82606852 0.02092869 0.0029267678
0.9047538 0.042346459 0.022334056
0.86775988 -0.044828709 0.0013257668
0.86558694 0.09865924 0.00077075307
0.80578703 0.04835527 -0.0018700466
0.91011941 -0.00105572 0.02356874
0.83621532 0.054201826 0.0050381254
0.84030467 0.014188452 0.010744024
0.8573342 -0.0081407083 0.018584233
0.91206795 0.066729672 0.005104511
0.83635253 0.026604967 0.011620675
0.93155235 -0.032613885 0.00074983528
0.93991524 0.036531016 0.0017456997
0.88211417 -0.01854392 0.013561276
0.85402364 -0.0094018364 0.011390187
0.93147463 -0.0039292332 0.0048828954
0.88827711 -0.05094523 0.00096106029
0.84020597 0.02466685 0.017610965
0.87003773 0.050521951 0.026059259
0.94403887 0.040642589 0.0020204883
0.90397185 -0.0030015931 0.02532737
0.84796429 -0.0090750549 0.0078902859
0.83444887 0.028674923 0.0095813563
0.84783107 0.0087087024 0.021719633
0.85394096 -0.0013130453 0.021828694
0.81611031 0.0090084979 -0.0017531441
0.8875187 -0.054279864 -0.00080540113
0.85411173 0.058861699 0.011619203
0.84785515 -0.016685843 0.0034487769
0.90827668 0.018550716 0.023863615
0.93569779 0.030819725 0.0050374256
0.84973639 -0.017398398 0.0035345706
0.88349974 0.065450601 0.011463825
0.89569563 0.080307402 0.0029553785
0.81023246 0.018905021 0.00087309751
0.87987828 -0.018891551 0.011396237
0.9428404 0.002901797 0.004957296
0.91597587 0.07088574 0.0030249557
0.9179343 0.070466809 0.0033570535
0.90822572 0.030855894 0.025474414
0.91609913 0.066289753 0.0048642009
0.91584146 0.06465438 0.0053869248
0.85346359 -0.0034580762 0.019870931
0.83704293 0.060411647 0.0026462891
0.88772649 0.0709714 0.0042763473
0.8257854 0.026892649 0.0035177327
0.85777402 0.059422262 0.0080934027
0.85189486 -0.016994447 0.0052876305
0.86593705 -0.015361701 0.015881369
0.88796175 0.066073589 0.012948508
0.88570756 -0.0205999 0.0089594768
0.87011951 -0.015065212 0.019719979
0.70792133 -0.12238557 -0.08646287
0.92303914 0.016498106 0.011787187
0.8378529 0.074549265 0.0011222525
0.88076037 0.065402366 0.0096844612
0.94435674 0.0019565248 0.0048787277
0.8558144 -0.0081981272 0.015547928
0.83648783 0.072580576 0.0011029261
0.88422769 0.068804026 0.0057796557
0.87437731 0.062709704 0.021129834
0.87629128 0.062731564 0.021267198
0.81806016 0.05476246 0.00066865736
0.87207425 0.06242834 0.021392219
0.89168251 0.05675232 0.02486694
0.87014365 0.062853202 0.019751959
0.84552985 0.047629543 0.0096783731
0.87188989 -0.02124298 0.0072931885
0.90385169 0.059862986 0.013153002
0.85942662 0.0022590628 0.025048228
0.91132748 0.049982738 0.019472681
0.8280592 0.06842123 0.0012321128
0.92028248 0.01599854 0.013855095
0.9375428 0.0019491977 0.0046311156
0.93344504 -0.00040864485 0.0046960022
0.94611406 0.038819194 0.0019414559
0.91679233 0.045739122 0.0078397607
0.89432448 0.049053382 0.027061153
0.94387037 0.038582917 0.0020152039
0.90204787 0.076589569 0.0030115994
0.93186712 0.014770385 0.0074304813
0.91207087 -0.036281943 0.0026819033
0.90020812 -0.0052719614 0.02529241
0.89572775 0.048721727 0.026727529
0.86018407 0.056973819 0.021723036
0.88391697 -0.04921836 0.0010593999
0.87264162 0.051198177 0.027074028
0.93799502 0.034695849 0.002045841
0.83391529 0.05851924 0.002701866
0.86719418 0.049742904 0.026048373
0.90525734 0.04129329 0.02241368
0.83453697 0.057275407 0.0028876138
0.93366295 0.034827948 0.0054089497
0.8364079 0.05610764 0.0032748575
0.85233825 -0.0014258692 0.020089669
0.93271661 0.031834077 0.0075887819
0.84575325 0.0046001603 0.01770067
0.91180313 0.024542814 0.023638034
0.90328223 0.058615543 0.016897319
0.85778391 -0.0095194597 0.017665546
0.91654056 0.012894617 0.01824032
0.91208565 0.02867596 0.023900516
0.84916985 -0.00019337205 0.015883971
0.92132431 0.027068993 0.01717264
0.88584 -0.016807698 0.019118581
0.84223664 0.045129281 0.0076228688
0.90973896 0.028540481 0.024162946
0.90493071 -0.010270228 0.020257123
0.94637054 0.015097481 0.0049673459
0.91220856 0.026437892 0.023661163
0.91001832 0.024875037 0.023260873
0.93019783 -0.002882241 0.0057892422
0.91202641 0.022456646 0.023806551
0.92376846 0.020985156 0.010733489
0.8503741 -0.019048091 0.003085803
0.91384906 0.042126503 0.017082894
0.91830224 0.020299567 0.017491024
0.92348725 0.018435931 0.011770743
0.94521469 0.013427935 0.0048005832
0.84384352 0.032835245 0.020248922
0.84569257 0.010745686 0.019762674
0.92545158 0.017204532 0.0078126611
0.90801263 0.01839217 0.025559748
0.86606091 0.062091574 0.019334566
0.70998454 -0.12147152 -0.086477719
0.707169 -0.12145805 -0.086539693
0.71215165 -0.1233674 -0.086307026
0.70949113 -0.12350283 -0.086355925
0.7077803 -0.12482673 -0.086306691
0.81204534 0.032706946 -0.0019691531
0.71176779 -0.12758072 -0.086040527
0.86010742 0.052609257 0.025207931
0.86785972 -0.02112033 0.0074721412
0.71240872 -0.12913673 -0.085925117
0.85421854 -0.0048596314 0.021466184
0.82447356 -0.023036897 0.00089033466
0.88414985 0.067139685 0.0074994992
0.89836264 0.060283322 0.019350987
0.82056975 0.01089818 -0.0016909736
0.89408195 -0.023432156 0.0017070158
0.84433717 0.04840415 0.011698118
0.90496165 0.01465464 0.026440619
0.91626728 0.053488173 0.0040510003
0.84635848 0.086600564 0.00096280925
0.93207896 0.00092890969 0.0052578431
0.86142355 3.5616598e-05 0.02510917
0.86955863 0.081295267 0.0028584334
0.91222948 0.05296297 0.0056402711
0.83650833 0.087777756 -0.0010722432
0.83778608 -0.040247783 -0.0013348383
0.89618206 -0.023684805 0.0018698141
0.86831599 -0.046821058 0.0010076634
0.839019 0.051931653 0.006863805
0.88212442 0.067027315 0.007531283
0.8939988 -0.052929003 -0.00078480021
0.89365166 -0.013232772 0.023292333
0.90198314 0.0579153 0.01903956
0.88404769 -0.047068518 0.0012359506
0.85802269 -0.013819833 0.0076977122
0.90182269 -0.050863493 -0.00064024556
0.84438348 0.074937873 0.00079842156
0.81821859 0.068793133 -0.00070069724
0.81987566 -0.022748938 -0.0010544371
0.93418914 0.048552211 0.0030824519
0.85816807 -0.033716969 0.0010053014
0.85612702 -0.033119634 0.00098334998
0.90614319 0.095936544 0.00079055066
0.9080255 -0.046889599 0.00095535122
0.85602134 -0.031135621 0.0014633266
0.86361313 0.059706505 0.01068774
0.85414648 -0.029176429 0.0013050605
0.85191023 -0.029141743 0.0012155613
0.86002541 -0.030730462 0.0014386944
0.85209841 -0.02703513 0.0011259888
0.81479907 -0.015004643 -0.0011979276
0.93559307 0.026701266 0.0047080806
0.81336206 -0.013129448 -0.0013388189
0.91594559 -0.042936664 0.00081712892
0.8398515 -0.017087048 0.0011856949
0.9153952 -0.0045764972 0.0086761247
0.82610005 -0.011390932 0.0010475747
0.91384786 -0.0033283876 0.013640885
0.91576689 -0.040860757 0.001315141
0.84825075 -0.015006928 0.0035263381
0.82654476 -0.0087959925 0.00088207715
0.8442359 -0.013269966 0.0034089775
0.81196254 0.022718331 -0.0018236069
0.84942335 0.00063007209 0.017444387
0.87625813 -0.021442698 0.0055780881
0.86644399 -0.014713952 0.019378167
0.86636096 -0.015192974 0.01750827
0.86025214 -0.015212277 0.0095904628
0.82197171 -0.0048806802 0.0011935218
0.8618089 -0.013792106 0.013668709
0.82018387 -0.0035437571 0.0009860975
0.87526017 -0.016873714 0.020735849
0.87356663 -0.016669186 0.020660743
0.86045271 -0.012933045 0.015497958
0.81848615 -0.0027921819 0.0008153292
0.87040216 -0.017085783 0.0135132
0.88977891 -0.025209162 0.0019162488
0.88009918 -0.02113146 0.00769185
0.88002551 -0.019493459 0.0096909422
0.86375546 -0.013488789 0.017615905
0.86219203 -0.01315044 0.015746383
0.86174023 -0.011842341 0.017381994
0.82646716 -0.0049240985 0.0009798418
0.91250491 -0.0050833919 0.013859126
0.88194591 -0.021061474 0.0076239943
0.86231333 -0.011387826 0.019439002
0.88338047 -0.020192901 0.0082723079
0.87812471 -0.016405176 0.020260837
0.82204342 -0.0014204028 0.00097380899
0.88597178 -0.021114103 0.0055484097
0.8860566 -0.019679576 0.0082402574
0.88792384 -0.021365287 0.005704504
0.88031417 -0.014829742 0.021864021
0.82612866 -0.0013205662 0.0009684891
0.83811134 -0.0051983036 0.0055013592
0.9387024 -8.4085055e-05 0.0046927901
0.88611978 -0.019615484 0.0096252998
0.88410085 -0.017041782 0.015792193
0.91820109 -0.03133367 0.002832172
0.88807112 -0.019935489 0.0076150186
0.8458547 -0.0052192402 0.0055224788
0.9217127 -0.029445296 0.0027634159
0.89012957 -0.017532228 0.0118332
0.84599137 -0.0037473564 0.0063098832
0.82950622 -0.02144428 0.00070485333
0.8420673 0.0064952415 0.019244213
0.87004691 -0.0072978828 0.025255833
0.83415103 0.00078927574 0.0054393602
0.81694555 -0.0062027154 0.00059339585
0.8299228 0.002510617 0.0033358654
0.81824553 0.0065777837 0.00070420728
0.85022199 -0.025117131 0.0012941412
0.83231932 0.0026383935 0.0056445291
0.89198846 -0.011321187 0.023522329
0.82874131 0.0049476828 0.0027746914
0.84352529 0.0027465723 0.0095433174
0.83605134 0.0044978852 0.0069155567
0.83614635 -0.0213123 0.00090661598
0.89575219 -0.013039839 0.022756005
0.85598761 0.001233684 0.025077272
0.89240181 -0.010385281 0.024785936
0.85221392 0.0029735011 0.024814934
0.84328949 0.0023305016 0.0081844013
0.83055401 0.0067321914 0.0049976371
0.86394417 0.07454519 0.0045948485
0.8381871 0.0047032884 0.0073191063
0.88421017 -0.021723742 0.0057027494
0.8340289 0.0072447397 0.0068506622
0.82793015 0.0029289932 0.0016722445
0.83247089 0.0085161459 0.0069416943
0.8308441 0.0089881718 0.0053388085
0.83962756 0.0084189344 0.0079700388
0.8241114 0.012368322 0.0028482394
0.92559725 -0.021278175 0.0032595354
0.83822495 -0.0072029866 0.0034834275
0.89591217 -0.0072905412 0.025160458
0.83196872 0.0107775 0.0068186736
0.83981395 0.010427124 0.0097696465
0.8249507 -0.0076261614 0.0012499969
0.88431412 -0.04473903 0.0010237336
0.90397441 -0.0091872709 0.021322528
0.83655584 0.010933411 0.009218961
0.90417856 -0.0089228377 0.017447505
0.84212148 0.010521893 0.013363718
0.83278835 0.01311893 0.0071516773
0.83093923 0.012550434 0.0067883334
0.9377929 -0.021440797 0.0029420871
0.91188741 -0.013126414 0.0049297125
0.83010614 -0.007365881 0.00097136234
0.84137326 0.012711206 0.014168382
0.94215447 -0.022707369 0.00084506534
0.94154888 -0.021153906 0.001288638
0.91364241 -0.012594153 0.004753809
0.90985888 -0.0086307572 0.011539735
0.82817435 0.0086215409 0.0033236693
0.89077109 -0.0013641766 0.023754759
0.90630591 -0.0056923912 0.019426119
0.89240289 -0.0015652028 0.023739602
0.82629913 0.018837931 0.0031436819
0.91131479 -0.0089857392 0.0089732436
0.83409864 0.016637731 0.0077077155
0.87374318 0.073024355 0.0024967913
0.9323808 -0.015081227 0.0046654851
0.92617577 -0.015298077 0.0031081529
0.92115086 -0.011431544 0.0046382262
0.89583009 0.00010686607 0.023851354
0.82994938 0.018933175 0.0053557628
0.85659337 0.060354188 0.013117113
0.91354382 -0.0075629274 0.0087964404
0.83210361 -0.024707021 0.00086185616
0.8414883 -0.011165945 0.0031915603
0.91522485 -0.0067650909 0.0070694913
0.91372108 -0.0055585713 0.011031453
0.86895216 -0.017332327 0.018862531
0.83978319 -0.011159261 0.0035427571
0.84158677 0.020878535 0.018184632
0.84013397 0.020642258 0.017446985
0.9133665 -0.0029392724 0.015543681
0.93214506 0.024901835 0.0069120969
0.82986832 0.022843229 0.0052109458
0.91428077 -0.0012510954 0.01573321
0.91320062 -0.0010532703 0.019312192
0.83386266 0.0028972283 0.0068894825
0.91544211 -0.00048369815 0.013787325
0.85819936 0.057044365 0.019911285
0.93179286 -0.025631273 0.0031358947
0.91527665 0.00070035848 0.019391743
0.91191733 0.0025462213 0.023080418
0.94581819 -0.010972157 0.0033536078
0.84394825 -0.014943839 0.0033267583
0.88612247 -0.017501684 0.013914701
0.94975531 -0.011158237 0.00099174725
0.89770895 0.073046431 0.0057116104
0.91709632 0.004942935 0.020785246
0.91628361 0.0046422267 0.021434488
0.82195562 0.034858007 0.0013812974
0.92389297 -0.015512721 0.0030996751
0.92608243 -0.017387679 0.0030005507
0.93996465 -0.020680808 0.0028622667
0.93767667 -0.019420194 0.0030720008
0.84398127 -0.0071670525 0.0055741295
0.91198611 0.0088879811 0.024831928
0.95304012 -0.005577107 0.00076868699
0.94040036 -0.00066681189 0.0047863857
0.92330998 0.023136688 0.011111457
0.91168571 -0.0050766608 0.015849762
0.91948777 0.0070998082 0.013139502
0.91601276 0.0087955203 0.022683233
0.92176902 0.0070706308 0.0075720339
0.85389709 0.012208339 0.024407867
0.9384411 -0.017321449 0.0031469977
0.89395547 -0.017319605 0.0092955837
0.93612731 -0.015228035 0.0029729991
0.93775195 -0.015244621 0.0031428935
0.92328817 0.0091637671 0.0071650208
0.95174205 -0.0076234476 0.00090881967
0.92165053 0.012898823 0.011292665
0.92543936 0.013207638 0.0071446644
0.9099232 -0.02539767 0.0027070025
0.82879317 0.044810876 0.003274749
0.9253518 0.014756258 0.0075127697
0.83244663 0.046397146 0.0046876566
0.88827717 -0.018600957 0.011670639
0.8881315 -0.017302938 0.010149344
0.81787074 0.018703001 -0.0020379014
0.89641321 -0.0054735332 0.025301447
0.83816415 0.044372182 0.0071260207
0.91010821 0.054542542 0.0056703044
0.93822151 -0.0045251455 0.0049585062
0.8562488 0.041181076 0.025692739
0.87298375 -0.027930727 0.00037696317
0.87784427 -0.021059312 0.007585464
0.83698535 0.048654366 0.0066841515
0.82966632 0.010660447 0.0054649529
0.86215991 -0.012736343 0.01747478
0.85835654 0.06039631 0.015318921
0.9177236 0.0069170548 0.018656693
0.89612871 0.064719953 0.0060065077
0.90642589 0.034560364 0.023677314
0.89185411 -0.040072482 0.0028782072
0.89099944 0.097460061 0.0028198371
0.89374405 0.063929468 0.015035174
0.94017994 -0.015141702 0.0030740516
0.92178237 0.0052926634 0.0072848997
0.83247048 0.051081631 0.003366617
0.8242538 -0.0093342699 0.00089584442
0.90967029 0.0049093058 0.025060443
0.89740658 0.10018231 0.00080329611
0.93206203 0.048749771 0.0032098547
0.84960908 0.004535235 0.021721596
0.90260631 -0.029947249 0.00035547427
0.8581025 0.058757413 0.017551735
0.84196097 0.0045922706 0.0077083036
0.88913262 0.098251551 0.0028045783
0.92611772 0.020803411 0.0070870197
0.83823431 -0.0013213141 0.0054772184
0.84586489 -0.0092634894 0.0051944056
0.84595901 -0.015080045 0.0035783334
0.93355131 0.050753955 0.0031432034
0.91755092 0.010255534 0.021220723
0.86984861 -0.014787029 0.021631375
0.82187641 0.00015313464 0.00075083907
0.85297066 0.060442824 0.010602996
0.92437214 -0.027514962 0.0028928118
0.83794034 0.0029321746 0.007354279
0.8818785 0.10209389 0.00069713505
0.8901608 0.095163703 0.0030482884
0.85318625 0.015268141 0.025243761
0.84354359 0.00056185923 0.0080567459
0.93991226 -0.019047694 0.0029051758
0.85010052 -0.026849383 0.0013308667
0.95174605 0.021949397 0.0052029253
0.83221138 0.046710748 -0.00013430092
0.82005936 -0.005615985 0.00077701412
0.83897996 0.047937192 0.0075517111
0.88417566 -0.017326701 0.014217571
0.88220763 -0.017342392 0.015382404
0.91206962 0.040755924 0.020196248
0.9198215 -0.013071907 0.0047553051
0.92571694 -0.02981811 0.0027252703
0.89756668 0.062079646 0.015228683
0.81986403 -0.00089056755 0.00078771036
0.92615116 -0.030983994 0.0029144913
0.91556281 0.002037137 0.021980949
0.93594575 -0.019016962 0.0029901664
0.92654407 0.070305884 0.0030704634
0.83212018 0.0045254924 0.0054466035
0.85020125 0.041145951 0.025272228
0.89001745 -0.025282994 0.0053052618
0.8799026 0.067326941 0.0058672735
0.890145 -0.02317505 0.0021013701
0.89856929 -0.017758505 0.002254525
0.84983152 0.086701378 0.00092012971
0.88401532 -0.016936341 0.01796121
0.86607087 -0.033144321 0.0014563341
0.86425841 0.092746004 0.0015328544
0.9139753 -0.0010339502 0.017402144
0.87359118 -0.052828275 -0.00071916042
0.87585849 0.084915429 0.0027951719
0.88808644 -0.017069729 0.01169915
0.94377387 0.034481615 0.0046064658
0.92843944 0.068867862 0.0035223698
0.85837799 0.064664446 0.009205942
0.88965768 -0.043233361 0.0030110863
0.88772452 0.082355715 0.0029039038
0.88401937 -0.018935446 0.011716139
0.94625431 0.030920859 0.0047723972
0.91385555 0.04919463 0.0055474234
0.86030781 0.072544999 0.0047707409
0.85847908 -0.031578366 0.0035437595
0.82243252 -0.026419409 -0.0008833927
0.89628786 -0.02099183 0.0023954639
0.89469332 0.10010283 0.0012395866
0.83990222 0.016645148 0.013360356
0.84820074 0.03642473 0.024873372
0.93222749 0.016782427 0.007077822
0.87623793 0.058549535 0.025324108
0.83594579 0.016807759 0.0097350758
0.91217297 0.030626213 0.024009654
0.91259646 0.050723795 0.0055786176
0.91130769 -0.0044107269 0.017570067
0.82024604 0.042596173 -0.0019489386
0.93602943 0.052861061 0.0029640347
0.92608589 -0.02714807 0.0030750702
0.8379913 0.054807808 0.0050458917
0.89808607 0.098234251 0.0011876096
0.84512657 0.08995986 0.00065791985
0.84792334 -0.035201225 0.0015989409
0.8978402 -0.034642078 0.0027089936
0.89633876 0.094113946 0.0029263105
0.8891052 0.10223241 0.00073726493
0.88172066 0.1005876 0.0015180174
0.94384766 -0.0067726057 0.004996486
0.86812377 0.052817844 0.025457032
0.8383981 0.076673023 0.0011455121
0.89239395 -0.043312229 0.0027604706
0.89002872 0.099776156 0.0027013421
0.87018335 0.056850836 0.025107875
0.91600704 0.048497066 0.0054477784
0.86419356 -0.012939811 0.019587453
0.93415827 -0.021342158 0.002911194
0.82822305 -0.025027215 0.00094423705
0.93389034 0.0044457405 0.0046091131
0.91663539 -0.035018783 0.0028219544
0.83822751 -0.0089088576 0.0031910769
0.93203133 -0.023281531 0.0030572843
0.87420744 0.081086867 0.0029294963
0.89192688 0.10120452 0.0011488983
0.89403301 -0.025037022 0.0019950266
0.87796837 0.058825422 0.025215318
0.88181257 0.084806174 0.0026854742
0.81581986 0.0011396854 0.00080940861
0.91983193 0.082574397 0.0031537088
0.88424158 -0.019153189 0.0095068226
0.92062938 0.048830524 0.0042629442
0.89174771 -0.0087658195 0.024959976
0.94803005 0.05094599 0.0030939598
0.91041666 0.061099179 0.0031472554
0.92425609 -0.01747128 0.0028789307
0.83564657 0.0026924789 0.0069829896
0.90803856 0.032695401 0.023922963
0.83226264 0.040445477 0.0050644833
