ply
format ascii 1.0
comment PCL generated
element vertex 1387
property float x
property float y
property float z
element camera 0
property float view_px
property float view_py
property float view_pz
property float x_axisx
property float x_axisy
property float x_axisz
property float y_axisx
property float y_axisy
property float y_axisz
property float z_axisx
property float z_axisy
property float z_axisz
property float focal
property float scalex
property float scaley
property float centerx
property float centery
property int viewportx
property int viewporty
property float k1
property float k2
end_header
0.73477501 0.059803475 0.3468433
0.73477501 0.059803475 0.3468433
0.73477501 0.059803475 0.3468433
0.73477501 0.059803475 0.3468433
1.0106118 0.1575416 -0.0039712847
1.0106524 0.1568545 -0.0039631617
1.0100543 0.15594433 -0.0031430158
1.010095 0.15525882 -0.0031349119
1.0101355 0.15457331 -0.003126808
1.0095371 0.15366949 -0.0023067126
1.0095776 0.15298557 -0.0022986275
1.008979 0.15208653 -0.001478613
1.0090194 0.15140419 -0.0014705467
1.0090597 0.15072186 -0.0014624803
1.0084606 0.14982918 -0.00064254401
1.0085009 0.14914845 -0.00063449651
1.0079015 0.14826053 0.00018541083
1.007302 0.14737581 0.0010052561
1.0073422 0.14669825 0.0010132659
1.0067424 0.14581829 0.0018330793
1.0061424 0.14494152 0.0026528277
1.0055422 0.14406793 0.0034725657
1.0049418 0.14319754 0.0042922418
1.0049815 0.14252633 0.0043001762
1.0043808 0.14166069 0.0051197959
1.00378 0.14079823 0.0059394026
1.003179 0.13993897 0.0067589437
1.0025777 0.13908286 0.0075784749
1.0026171 0.13841802 0.0075863348
1.0020156 0.1375667 0.0084057851
1.0014138 0.13671856 0.0092252223
1.001453 0.1360569 0.0092330445
1.000851 0.13521354 0.010052398
1.0008901 0.13455348 0.0100602
1.0002879 0.13371487 0.010879501
1.0003269 0.1330564 0.010887285
1.0003659 0.13239792 0.010895069
0.99976319 0.13156568 0.011714319
0.99980205 0.1309088 0.011722084
0.99984092 0.13025191 0.01172985
0.99987984 0.12959503 0.011737615
0.9999187 0.12893814 0.01174538
0.9993155 0.12811545 0.012564492
0.9993543 0.12746015 0.012572239
0.99939305 0.12680486 0.012579986
0.99943185 0.12614956 0.012587733
0.99882817 0.12533481 0.013406772
0.99886686 0.12468112 0.013414499
0.99890554 0.1240274 0.013422227
0.99830151 0.12321903 0.01424117
0.99834013 0.12256691 0.01424888
0.99837869 0.1219148 0.014256588
0.9977743 0.12111278 0.015075481
0.99781281 0.12046225 0.01508317
0.99785131 0.11981173 0.015090861
0.9972465 0.11901608 0.015909653
0.99728489 0.11836714 0.015917325
0.99732333 0.11771821 0.015924996
0.99736172 0.11706927 0.015932668
0.99740016 0.11642034 0.015940338
0.99679476 0.11563423 0.01675904
0.99747694 0.11512247 0.015955683
0.99687141 0.11433955 0.016774345
0.99755377 0.11382461 0.015971025
0.996948 0.11304485 0.016789651
0.99698633 0.11239751 0.016797304
0.99702466 0.11175017 0.016804956
0.99706298 0.11110283 0.01681261
0.99710131 0.11045548 0.016820261
0.99713963 0.10980814 0.016827915
0.9971779 0.1091608 0.016835567
0.99721622 0.10851345 0.01684322
0.99725455 0.10786611 0.016850872
0.99664789 0.10710227 0.017669288
0.9966861 0.10645652 0.017676923
0.99672431 0.10581076 0.017684557
0.99676257 0.10516501 0.01769219
0.99680078 0.10451926 0.017699825
0.99683899 0.10387351 0.017707458
0.99687725 0.10322775 0.017715093
0.99691546 0.10258199 0.017722726
0.99759942 0.10204002 0.016919747
0.99763775 0.10139267 0.016927399
0.99767607 0.10074533 0.016935052
0.9977144 0.10009798 0.016942704
0.99775267 0.099450648 0.016950358
0.99843723 0.098899126 0.01614747
0.99847567 0.098250188 0.01615514
0.99851406 0.097601257 0.016162813
0.9985525 0.096952319 0.016170483
0.99923748 0.096392848 0.015367712
0.99927598 0.095742323 0.015375402
0.99931449 0.095091797 0.015383092
0.99999994 0.094525963 0.01458037
1.0000385 0.093873851 0.014588079
1.0007242 0.093303241 0.013785439
1.0007629 0.092649534 0.013793167
1.0008016 0.091995828 0.013800895
1.0014876 0.091418862 0.012998307
1.0015265 0.090763569 0.013006054
1.0022128 0.090181828 0.012203544
1.0022516 0.08952494 0.012211311
1.0029383 0.088938423 0.011408833
1.0029773 0.088279948 0.011416618
1.0030162 0.087621473 0.011424402
1.0037032 0.087028593 0.010622025
1.0037423 0.086368531 0.010629827
1.0037813 0.085708462 0.010637631
1.0044687 0.085109226 0.0098353308
1.0045079 0.084447563 0.0098431529
1.004547 0.083785906 0.0098509751
1.0052348 0.083180308 0.0090487236
1.0052741 0.082517058 0.0090565635
1.0053133 0.081853814 0.0090644043
1.0060015 0.081241854 0.0082622524
1.0066898 0.080626711 0.0074601141
1.0073782 0.080008388 0.00665804
1.0074178 0.079340369 0.0066659371
1.0081066 0.078717269 0.0058638924
1.0087956 0.078090996 0.0050619096
1.0094848 0.077461541 0.0042599649
1.0108236 0.076869056 0.0026481748
1.0115132 0.076231651 0.001846299
1.0115534 0.07555408 0.001854309
1.0122433 0.0749119 0.0010525144
1.0129334 0.074266538 0.00025073282
1.0136237 0.073617995 -0.00055098371
1.0143142 0.07296627 -0.0013526655
1.0150048 0.072311372 -0.0021543342
1.0156957 0.071653284 -0.0029559408
1.0157363 0.070966177 -0.002947818
1.0200363 -0.012692631 -0.0011494447
1.019415 -0.013208344 -0.00033393738
1.0187935 -0.013720889 0.00048150806
1.0181717 -0.014230243 0.0012969129
1.018212 -0.014910992 0.0013049605
1.0182523 -0.015591742 0.001313008
1.018955 -0.016450224 0.00051377335
1.0189954 -0.017132565 0.00052183977
1.0196984 -0.017995823 -0.00027734137
1.0204016 -0.01886227 -0.0010765094
1.0204421 -0.019547787 -0.0010684053
1.0211456 -0.020419002 -0.0018674925
1.0216336 -0.028664282 -0.0017700194
1.0210102 -0.02914501 -0.00095495011
1.0203866 -0.029622557 -0.00013989395
1.0197628 -0.030096926 0.00067510019
1.0191387 -0.030568121 0.001490054
1.0185145 -0.031036125 0.0023049973
1.0178902 -0.031500947 0.0031198785
1.0172656 -0.031962585 0.0039347466
1.0166408 -0.032421049 0.00474955
1.0160159 -0.032876328 0.0055643427
1.0153908 -0.033328436 0.006379074
1.0147654 -0.033777352 0.007193767
1.0148051 -0.034446958 0.0072016828
1.0141793 -0.034891114 0.0080163442
1.0142189 -0.035559133 0.0080242418
1.0135931 -0.035998505 0.0088388193
1.0136325 -0.036664937 0.0088466974
1.0130063 -0.03709954 0.0096612461
1.0130457 -0.037764378 0.0096691055
1.0124192 -0.038194213 0.010483573
1.0124584 -0.038857456 0.010491414
1.0118318 -0.039282519 0.011305849
1.0112048 -0.039704397 0.01212022
1.0112438 -0.040364467 0.012128023
1.0106167 -0.040781587 0.01294234
1.0106556 -0.041440062 0.012950125
1.0106946 -0.042098537 0.012957909
1.010067 -0.042509269 0.013772176
1.0101058 -0.043166168 0.013779941
1.0101448 -0.043823052 0.013787706
1.0095168 -0.044227432 0.014601873
1.0095556 -0.044882741 0.01460962
1.0095944 -0.045538034 0.014617367
1.0096332 -0.046193328 0.014625113
1.0090047 -0.046589751 0.015439208
1.0090435 -0.047243468 0.015446936
1.0090821 -0.047897168 0.015454664
1.0091208 -0.04855087 0.015462391
1.0091596 -0.049204584 0.015470119
1.0085305 -0.049591474 0.01628408
1.0085691 -0.050243583 0.016291788
1.0086077 -0.050895695 0.016299497
1.0086464 -0.051547818 0.016307207
1.0086849 -0.052199926 0.016314916
1.0087235 -0.052852046 0.016322626
1.0080938 -0.053227808 0.017136479
1.0081323 -0.053878326 0.017144168
1.0081708 -0.054528844 0.017151859
1.0082093 -0.055179361 0.017159548
0.73477501 0.059803475 0.3468433
1.0397168 -0.069843113 -0.02070874
1.0397598 -0.07056839 -0.020700166
1.0398027 -0.071293682 -0.020691592
1.0398456 -0.072018959 -0.020683018
1.0398885 -0.072744228 -0.020674445
1.0399314 -0.073469505 -0.020665869
1.0399743 -0.074194796 -0.020657295
1.0407043 -0.086524539 -0.020511538
1.0407472 -0.08724983 -0.020502964
1.0407901 -0.087975107 -0.02049439
1.040833 -0.088700384 -0.020485815
1.0408759 -0.089425668 -0.020477241
1.0409188 -0.090150945 -0.020468667
1.0409617 -0.090876222 -0.020460093
1.0410048 -0.091601498 -0.02045152
0.73477501 0.059803475 0.3468433
0.73477501 0.059803475 0.3468433
0.73477501 0.059803475 0.3468433
0.73477501 0.059803475 0.3468433
0.73477501 0.059803475 0.3468433
0.73477501 0.059803475 0.3468433
0.73477501 0.059803475 0.3468433
0.73477501 0.059803475 0.3468433
0.73477501 0.059803475 0.3468433
1.0118442 -0.083545208 0.015066675
1.0118829 -0.084200501 0.015074422
1.0125943 -0.085206911 0.014276933
1.0126332 -0.085863799 0.014284698
1.0126722 -0.086520679 0.014292464
1.012711 -0.087177582 0.01430023
1.0127499 -0.087834463 0.014307995
1.0127888 -0.088491336 0.014315761
1.0128276 -0.089148216 0.014323526
1.0135399 -0.090167381 0.013526163
1.0135789 -0.090825856 0.013533948
1.0136179 -0.091484331 0.013541732
1.0136569 -0.092142805 0.013549516
1.0136958 -0.09280128 0.013557301
1.0144086 -0.093829945 0.012760075
1.0144477 -0.094490014 0.012767877
1.0144868 -0.095150098 0.012775681
1.0151999 -0.096185125 0.011978533
1.0152391 -0.096846782 0.011986355
1.0159526 -0.097886607 0.011189237
1.0159918 -0.098549858 0.011197078
1.016031 -0.099213101 0.011204919
1.0167449 -0.10025926 0.0104079
1.0174589 -0.10130863 0.0096108941
1.0181731 -0.10236116 0.008813953
1.0195624 -0.10380458 0.0072122198
1.020952 -0.10525436 0.0056105615
1.022342 -0.10671049 0.0040089814
1.0230572 -0.10778052 0.0032122445
1.0244479 -0.1092478 0.0016107959
1.0251635 -0.11032578 0.00081415317
1.0448256 -0.15615134 -0.019688433
1.0448685 -0.15687662 -0.019679859
0.73477501 0.059803475 0.3468433
0.73477501 0.059803475 0.3468433
0.73477501 0.059803475 0.3468433
0.73477501 0.059803475 0.3468433
0.73477501 0.059803475 0.3468433
0.73477501 0.059803475 0.3468433
0.73477501 0.059803475 0.3468433
0.73477501 0.059803475 0.3468433
0.73477501 0.059803475 0.3468433
0.73477501 0.059803475 0.3468433
0.73477501 0.059803475 0.3468433
0.73477501 0.059803475 0.3468433
0.73477501 0.059803475 0.3468433
0.73477501 0.059803475 0.3468433
0.73477501 0.059803475 0.3468433
0.73477501 0.059803475 0.3468433
0.73477501 0.059803475 0.3468433
0.73477501 0.059803475 0.3468433
0.73477501 0.059803475 0.3468433
0.73477501 0.059803475 0.3468433
0.73477501 0.059803475 0.3468433
0.73477501 0.059803475 0.3468433
0.73477501 0.059803475 0.3468433
0.73477501 0.059803475 0.3468433
0.73477501 0.059803475 0.3468433
0.73477501 0.059803475 0.3468433
0.73477501 0.059803475 0.3468433
0.73477501 0.059803475 0.3468433
0.73477501 0.059803475 0.3468433
0.73477501 0.059803475 0.3468433
0.73477501 0.059803475 0.3468433
0.73477501 0.059803475 0.3468433
0.73477501 0.059803475 0.3468433
0.73477501 0.059803475 0.3468433
0.73477501 0.059803475 0.3468433
0.73477501 0.059803475 0.3468433
0.73477501 0.059803475 0.3468433
0.73477501 0.059803475 0.3468433
0.73477501 0.059803475 0.3468433
0.73477501 0.059803475 0.3468433
0.73477501 0.059803475 0.3468433
0.73477501 0.059803475 0.3468433
0.73477501 0.059803475 0.3468433
0.73477501 0.059803475 0.3468433
0.73477501 0.059803475 0.3468433
0.73477501 0.059803475 0.3468433
0.73477501 0.059803475 0.3468433
0.73477501 0.059803475 0.3468433
0.73477501 0.059803475 0.3468433
0.73477501 0.059803475 0.3468433
0.73477501 0.059803475 0.3468433
0.73477501 0.059803475 0.3468433
0.73477501 0.059803475 0.3468433
0.73477501 0.059803475 0.3468433
0.73477501 0.059803475 0.3468433
0.73477501 0.059803475 0.3468433
0.73477501 0.059803475 0.3468433
0.73477501 0.059803475 0.3468433
0.73477501 0.059803475 0.3468433
0.73477501 0.059803475 0.3468433
0.73477501 0.059803475 0.3468433
0.73477501 0.059803475 0.3468433
0.73477501 0.059803475 0.3468433
0.73477501 0.059803475 0.3468433
0.73477501 0.059803475 0.3468433
0.73477501 0.059803475 0.3468433
0.73477501 0.059803475 0.3468433
0.73477501 0.059803475 0.3468433
0.73477501 0.059803475 0.3468433
0.73477501 0.059803475 0.3468433
0.73477501 0.059803475 0.3468433
0.73477501 0.059803475 0.3468433
0.73477501 0.059803475 0.3468433
0.73477501 0.059803475 0.3468433
0.73477501 0.059803475 0.3468433
0.73477501 0.059803475 0.3468433
0.73477501 0.059803475 0.3468433
0.73477501 0.059803475 0.3468433
0.73477501 0.059803475 0.3468433
0.73477501 0.059803475 0.3468433
0.73477501 0.059803475 0.3468433
0.73477501 0.059803475 0.3468433
0.73477501 0.059803475 0.3468433
0.73477501 0.059803475 0.3468433
0.73477501 0.059803475 0.3468433
0.73477501 0.059803475 0.3468433
0.73477501 0.059803475 0.3468433
0.73477501 0.059803475 0.3468433
1.0099797 0.15750101 -0.0042409147
1.0100204 0.1568139 -0.0042327922
1.0094239 0.15590383 -0.0034120216
1.0094644 0.15521832 -0.0034039177
1.0095049 0.15453279 -0.0033958135
1.008908 0.15362908 -0.0025750967
1.0089484 0.15294516 -0.0025670116
1.0083513 0.1520462 -0.0017463726
1.0083916 0.15136388 -0.0017383063
1.008432 0.15068154 -0.0017302398
1.0078344 0.14978896 -0.00090967614
1.0078747 0.14910822 -0.00090162863
1.0072769 0.1482204 -8.1099635e-05
1.0066788 0.14733578 0.00073937012
1.0067189 0.14665821 0.00074738002
1.0061206 0.14577836 0.001567815
1.005522 0.14490168 0.0023881907
1.0055619 0.1442273 0.0023961631
1.0049632 0.14335538 0.0032165069
1.0043641 0.14248666 0.0040367856
1.0037649 0.14162113 0.0048570298
1.0031655 0.14075875 0.0056772609
1.0032051 0.14009075 0.0056851581
1.0026053 0.13923316 0.0065053049
1.0020055 0.13837874 0.007325442
1.0014055 0.13752751 0.0081455167
1.0014447 0.13686426 0.0081533575
1.0008444 0.13601781 0.0089733982
1.0002439 0.13517454 0.0097933784
1.000283 0.13451447 0.009801182
0.99968213 0.13367596 0.010621103
0.99972111 0.1330175 0.010628887
0.99976009 0.13235901 0.010636671
0.99915892 0.13152687 0.011456545
0.99919778 0.13086998 0.011464311
0.9992367 0.1302131 0.011472077
0.99927557 0.12955621 0.011479842
0.99931443 0.12889932 0.011487608
0.99871272 0.12807673 0.012307344
0.99875152 0.12742142 0.012315091
0.99879026 0.12676613 0.012322837
0.99882907 0.12611084 0.012330584
0.99822688 0.12529619 0.013150249
0.99826556 0.12464248 0.013157976
0.99830425 0.12398878 0.013165704
0.99770164 0.1231805 0.013985272
0.99774027 0.12252838 0.01399298
0.99713737 0.12172487 0.014812516
0.99717587 0.12107434 0.014820206
0.99721438 0.12042382 0.014827896
0.99661112 0.11962667 0.015647329
0.99664956 0.11897773 0.015655
0.99668795 0.1183288 0.015662672
0.99672639 0.11767986 0.015670344
0.99676478 0.11703093 0.015678015
0.99680322 0.116382 0.015685687
0.99684161 0.11573306 0.015693357
0.99688005 0.11508413 0.015701029
0.99691844 0.1144352 0.015708702
0.99631423 0.11365394 0.016527973
0.99635255 0.11300661 0.016535625
0.99639088 0.11235926 0.016543278
0.9964292 0.11171192 0.01655093
0.99646753 0.11106458 0.016558584
0.99650586 0.11041723 0.016566236
0.99654412 0.10976989 0.016573889
0.99658245 0.10912254 0.016581541
0.99662077 0.1084752 0.016589195
0.9966591 0.10782786 0.016596846
0.99605387 0.10706411 0.017415885
0.99609208 0.10641836 0.017423518
0.99613035 0.10577261 0.017431153
0.99616855 0.10512685 0.017438786
0.99620676 0.1044811 0.017446421
0.99624497 0.10383534 0.017454054
0.99692732 0.10329645 0.016650416
0.99696565 0.10264911 0.016658068
0.99700397 0.10200176 0.016665721
0.9970423 0.10135442 0.016673373
0.99708056 0.10070708 0.016681027
0.99711889 0.10005974 0.016688678
0.99715722 0.099412397 0.016696332
0.99784034 0.098860778 0.015892817
0.99787873 0.098211847 0.015900487
0.99791712 0.097562909 0.015908159
0.99795556 0.096913978 0.015915832
0.99863911 0.09635441 0.015112437
0.99867761 0.095703885 0.015120127
0.99936146 0.095139548 0.014316762
0.99940008 0.094487429 0.014324471
0.99943864 0.093835317 0.01433218
1.0001229 0.093264617 0.013528915
1.0001615 0.092610911 0.013536643
1.000846 0.092035435 0.012733412
1.0008849 0.091380142 0.012741159
1.0015696 0.090799898 0.011938007
1.0016085 0.09014301 0.011945772
1.0022936 0.08955799 0.011142652
1.0023326 0.088899516 0.011150436
1.0023715 0.088241041 0.01115822
1.003057 0.087649666 0.010355202
1.003096 0.086989596 0.010363005
1.0031351 0.086329527 0.010370809
1.0038209 0.085731789 0.0095678624
1.0038601 0.085070126 0.0095756846
1.0038992 0.084408469 0.0095835067
1.0045855 0.083804369 0.0087806145
1.0046247 0.083141118 0.0087884553
1.0046639 0.082477868 0.0087962961
1.0047033 0.081814624 0.0088041369
1.0053899 0.081202567 0.0080013601
1.0060767 0.080587335 0.0071985968
1.0067638 0.079968914 0.0063958983
1.0074511 0.07934732 0.0055932105
1.0081384 0.078722537 0.0047905846
1.008826 0.078094579 0.0039879987
1.0095139 0.077463433 0.0031854236
1.0102018 0.076829113 0.0023829103
1.01089 0.076191612 0.0015804132
1.0115783 0.075550929 0.00077797519
1.0122669 0.074907064 -2.4446805e-05
1.0129557 0.074260019 -0.00082680961
1.012996 0.07357768 -0.00081874325
1.013685 0.072925866 -0.0016210496
1.0143743 0.072270863 -0.00242334
1.0144148 0.07158535 -0.0024152361
1.0151043 0.070925578 -0.0032174485
1.0151449 0.070238471 -0.0032093257
1.0155923 0.062680297 -0.0031199753
1.015633 0.061993189 -0.0031118526
1.0194058 -0.012733136 -0.0014184505
1.0187858 -0.013248756 -0.00060232147
1.0181657 -0.013761207 0.0002137485
1.0175455 -0.014270466 0.0010297807
1.0175858 -0.014951216 0.0010378284
1.017626 -0.015631966 0.0010458759
1.0176663 -0.016312707 0.0010539235
1.0183678 -0.017172884 0.00025408022
1.0184081 -0.01785521 0.00026214647
1.0191097 -0.018720159 -0.00053764036
1.0198115 -0.019588292 -0.0013374111
1.0203797 -0.029185515 -0.0012239559
1.0197574 -0.029662969 -0.00040827805
1.0191351 -0.030137245 0.00040734065
1.0185126 -0.030608345 0.0012229218
1.0178899 -0.031076254 0.0020384868
1.0172669 -0.031540982 0.0028539926
1.0166438 -0.032002527 0.0036694824
1.0160204 -0.032460894 0.0044849128
1.015397 -0.03291608 0.0053003305
1.0154368 -0.033588879 0.005308284
1.0148131 -0.034039292 0.0061236178
1.0141891 -0.034486525 0.0069389166
1.0142287 -0.035156149 0.0069468329
1.0136044 -0.035598602 0.0077621001
1.013644 -0.036266621 0.0077699968
1.0130194 -0.036704313 0.0085851802
1.0130589 -0.037370749 0.0085930582
1.0124341 -0.037803661 0.0094082132
1.0118091 -0.038233403 0.010223305
1.0118483 -0.038896646 0.010231146
1.0112231 -0.039321616 0.011046203
1.0112623 -0.039983276 0.011054025
1.0106367 -0.040403467 0.011869004
1.010011 -0.040820494 0.012683943
1.0100499 -0.041478969 0.012691728
1.0100889 -0.042137448 0.012699512
1.0094627 -0.042548083 0.013514403
1.0095017 -0.043204982 0.013522169
1.0095406 -0.043861866 0.013529934
1.0095794 -0.04451875 0.013537699
1.0089529 -0.044921461 0.014352472
1.0089916 -0.045576755 0.014360218
1.0090305 -0.046232048 0.014367965
1.0090692 -0.046887338 0.014375712
1.0084422 -0.047282092 0.015190412
1.0084808 -0.047935795 0.01519814
1.0085195 -0.048589494 0.015205868
1.007892 -0.048977897 0.016020471
1.0079306 -0.049630005 0.016028181
1.0079693 -0.050282117 0.01603589
1.0080079 -0.050934225 0.016043598
1.0080465 -0.051586349 0.016051307
1.0074184 -0.051965188 0.016865823
1.0074569 -0.052615706 0.016873512
1.0074954 -0.053266246 0.016881203
1.0075339 -0.053916764 0.016888894
1.0075725 -0.054567281 0.016896583
1.0069439 -0.054936584 0.017710958
1.0069823 -0.055585526 0.01771863
0.73477501 0.059803475 0.3468433
0.73477501 0.059803475 0.3468433
1.0391355 -0.071336538 -0.020976203
1.0391785 -0.072061814 -0.020967629
1.0392214 -0.072787084 -0.020959055
1.0401658 -0.088743232 -0.020770427
1.0402088 -0.089468524 -0.020761851
1.0402517 -0.090193801 -0.020753277
1.0402946 -0.090919077 -0.020744704
0.73477501 0.059803475 0.3468433
0.73477501 0.059803475 0.3468433
0.73477501 0.059803475 0.3468433
0.73477501 0.059803475 0.3468433
0.73477501 0.059803475 0.3468433
0.73477501 0.059803475 0.3468433
0.73477501 0.059803475 0.3468433
0.73477501 0.059803475 0.3468433
0.73477501 0.059803475 0.3468433
1.0112026 -0.082928635 0.014801781
1.0112413 -0.083583929 0.014809527
1.0112802 -0.084239222 0.014817274
1.0113189 -0.08489453 0.014825021
1.0113577 -0.085549824 0.014832768
1.0120679 -0.086559497 0.014034691
1.0121068 -0.087216392 0.014042457
1.0121456 -0.08787328 0.014050222
1.0121845 -0.088530146 0.014057987
1.0122235 -0.089187033 0.014065754
1.0122623 -0.089843929 0.014073519
1.0129732 -0.090864763 0.013275551
1.0130122 -0.091523238 0.013283335
1.0130512 -0.092181712 0.013291119
1.0130901 -0.092840187 0.013298904
1.0138015 -0.093868949 0.012501055
1.0138406 -0.094529018 0.012508859
1.0138795 -0.095189095 0.012516662
1.0145912 -0.096224219 0.011718887
1.0146304 -0.096885882 0.011726709
1.0153425 -0.09792579 0.010928969
1.0153817 -0.09858904 0.01093681
1.0154209 -0.099252291 0.010944651
1.0161333 -0.10029855 0.010147007
1.0168458 -0.10134801 0.0093493769
1.0182319 -0.10278683 0.0077463407
1.0196183 -0.10423201 0.0061434042
1.0210052 -0.10568359 0.0045405156
0.73477501 0.059803475 0.3468433
1.0231061 -0.10821322 0.0021403411
1.0238202 -0.10928811 0.0013430363
1.0245345 -0.1103662 0.00054576906
1.0442014 -0.15691948 -0.01996447
0.73477501 0.059803475 0.3468433
0.73477501 0.059803475 0.3468433
0.73477501 0.059803475 0.3468433
0.73477501 0.059803475 0.3468433
0.73477501 0.059803475 0.3468433
0.73477501 0.059803475 0.3468433
0.73477501 0.059803475 0.3468433
0.73477501 0.059803475 0.3468433
0.73477501 0.059803475 0.3468433
0.73477501 0.059803475 0.3468433
0.73477501 0.059803475 0.3468433
0.73477501 0.059803475 0.3468433
0.73477501 0.059803475 0.3468433
0.73477501 0.059803475 0.3468433
0.73477501 0.059803475 0.3468433
0.73477501 0.059803475 0.3468433
0.73477501 0.059803475 0.3468433
0.73477501 0.059803475 0.3468433
0.73477501 0.059803475 0.3468433
0.73477501 0.059803475 0.3468433
0.73477501 0.059803475 0.3468433
0.73477501 0.059803475 0.3468433
0.73477501 0.059803475 0.3468433
0.73477501 0.059803475 0.3468433
0.73477501 0.059803475 0.3468433
0.73477501 0.059803475 0.3468433
0.73477501 0.059803475 0.3468433
0.73477501 0.059803475 0.3468433
0.73477501 0.059803475 0.3468433
0.73477501 0.059803475 0.3468433
0.73477501 0.059803475 0.3468433
0.73477501 0.059803475 0.3468433
0.73477501 0.059803475 0.3468433
0.73477501 0.059803475 0.3468433
0.73477501 0.059803475 0.3468433
0.73477501 0.059803475 0.3468433
0.73477501 0.059803475 0.3468433
0.73477501 0.059803475 0.3468433
0.73477501 0.059803475 0.3468433
0.73477501 0.059803475 0.3468433
0.73477501 0.059803475 0.3468433
0.73477501 0.059803475 0.3468433
0.73477501 0.059803475 0.3468433
0.73477501 0.059803475 0.3468433
0.73477501 0.059803475 0.3468433
0.73477501 0.059803475 0.3468433
0.73477501 0.059803475 0.3468433
0.73477501 0.059803475 0.3468433
0.73477501 0.059803475 0.3468433
0.73477501 0.059803475 0.3468433
0.73477501 0.059803475 0.3468433
0.73477501 0.059803475 0.3468433
0.73477501 0.059803475 0.3468433
0.73477501 0.059803475 0.3468433
0.73477501 0.059803475 0.3468433
0.73477501 0.059803475 0.3468433
0.73477501 0.059803475 0.3468433
0.73477501 0.059803475 0.3468433
0.73477501 0.059803475 0.3468433
0.73477501 0.059803475 0.3468433
0.73477501 0.059803475 0.3468433
0.73477501 0.059803475 0.3468433
0.73477501 0.059803475 0.3468433
0.73477501 0.059803475 0.3468433
0.73477501 0.059803475 0.3468433
0.73477501 0.059803475 0.3468433
0.73477501 0.059803475 0.3468433
0.73477501 0.059803475 0.3468433
0.73477501 0.059803475 0.3468433
0.73477501 0.059803475 0.3468433
0.73477501 0.059803475 0.3468433
0.73477501 0.059803475 0.3468433
0.73477501 0.059803475 0.3468433
0.73477501 0.059803475 0.3468433
0.73477501 0.059803475 0.3468433
0.73477501 0.059803475 0.3468433
0.73477501 0.059803475 0.3468433
0.73477501 0.059803475 0.3468433
0.73477501 0.059803475 0.3468433
0.73477501 0.059803475 0.3468433
0.73477501 0.059803475 0.3468433
0.73477501 0.059803475 0.3468433
0.73477501 0.059803475 0.3468433
0.73477501 0.059803475 0.3468433
0.73477501 0.059803475 0.3468433
0.73477501 0.059803475 0.3468433
0.73477501 0.059803475 0.3468433
0.73477501 0.059803475 0.3468433
1.0087932 0.15586333 -0.0036810301
1.0088338 0.1551778 -0.0036729262
1.0088744 0.15449229 -0.0036648223
1.0082788 0.15358867 -0.0028434778
1.0083194 0.15290475 -0.0028353927
1.0077236 0.1520059 -0.002014132
1.007764 0.15132356 -0.0020060658
1.0071679 0.15042949 -0.0011848586
1.0072082 0.14974874 -0.0011768112
1.0072485 0.149068 -0.0011687636
1.0066521 0.14818028 -0.0003476101
1.0060556 0.14729574 0.00047348419
1.0060956 0.14661819 0.00048149409
1.0054988 0.14573841 0.0013025536
1.0055387 0.14506243 0.0013105448
1.0049416 0.14418745 0.0021315261
1.0043442 0.14331564 0.0029524916
1.0037466 0.14244701 0.003773398
1.0037864 0.1417758 0.0037813326
1.0031886 0.14091195 0.0046021794
1.0025905 0.14005128 0.0054230164
1.0019923 0.13919377 0.0062437882
1.0020318 0.13852735 0.0062516662
1.0014333 0.13767461 0.0070724091
1.0008346 0.13682507 0.0078930864
1.0002358 0.13597871 0.0087137548
1.0002749 0.13531706 0.0087215761
0.99967575 0.13447547 0.0095421597
0.99971485 0.13381539 0.0095499633
0.99911541 0.13297859 0.010370493
0.99915439 0.13232011 0.010378278
0.99919337 0.13166162 0.010386062
0.99859357 0.13083117 0.011206538
0.99863243 0.13017428 0.011214304
0.99867129 0.12951739 0.011222069
0.99871022 0.1288605 0.011229835
0.99874908 0.12820363 0.011237601
0.99814874 0.12738271 0.012057942
0.99818748 0.12672742 0.012065689
0.99822628 0.12607212 0.012073436
0.99762553 0.12525757 0.012893724
0.99766421 0.12460386 0.012901452
0.9977029 0.12395015 0.01290918
0.99710178 0.12314197 0.013729372
0.99714041 0.12248985 0.013737082
0.996539 0.12168643 0.014557238
0.9965775 0.1210359 0.014564929
0.99661601 0.12038538 0.014572619
0.99665451 0.11973485 0.014580309
0.99605262 0.11893939 0.01540035
0.99609107 0.11829045 0.015408022
0.99612945 0.11764152 0.015415694
0.99616784 0.11699259 0.015423365
0.99620628 0.11634365 0.015431036
0.99624467 0.11569472 0.015438708
0.99628311 0.11504579 0.015446379
0.9963215 0.11439686 0.015454051
0.99571878 0.1136157 0.016273944
0.9957571 0.11296836 0.016281597
0.99579543 0.11232101 0.016289249
0.99583369 0.11167367 0.016296903
0.99587202 0.11102632 0.016304554
0.99591035 0.11037898 0.016312208
0.99594867 0.10973164 0.01631986
0.995987 0.1090843 0.016327513
0.99602532 0.10843695 0.016335165
0.99606365 0.10778961 0.016342819
0.99610192 0.10714226 0.01635047
0.99614024 0.10649492 0.016358124
0.99617857 0.10584757 0.016365776
0.99621689 0.10520023 0.016373429
0.99625522 0.10455289 0.016381081
0.99629354 0.10390555 0.016388735
0.99633187 0.1032582 0.016396387
0.9963702 0.10261086 0.01640404
0.99640846 0.10196352 0.016411692
0.99644679 0.10131617 0.016419346
0.99648511 0.10066883 0.016426997
0.99716657 0.10012031 0.015622823
0.99720496 0.099471368 0.015630495
0.9972434 0.098822437 0.015638167
0.99728179 0.098173499 0.015645837
0.99732023 0.097524568 0.01565351
0.99800223 0.096966498 0.014849469
0.99804074 0.096315973 0.014857159
0.99872303 0.095753133 0.014053154
0.99876159 0.095101014 0.014060863
0.99944419 0.094533399 0.013256935
0.99948287 0.093879692 0.013264664
0.99952155 0.093225986 0.013272392
1.0002044 0.092652015 0.012468518
1.0002433 0.091996714 0.012476264
1.0009265 0.091417968 0.011672469
1.0009654 0.09076108 0.011680234
1.0010042 0.0901042 0.011688
1.0016879 0.089519083 0.010884257
1.0017269 0.088860609 0.010892041
1.0024108 0.088270731 0.010088378
1.0024498 0.087610662 0.01009618
1.0024889 0.086950593 0.010103984
1.0031731 0.086354345 0.0093003977
1.0032123 0.085692689 0.009308219
1.0032514 0.085031033 0.0093160411
1.0039361 0.08442843 0.0085125025
1.0039754 0.083765179 0.0085203433
1.0040146 0.083101928 0.0085281841
1.0040538 0.082438678 0.008536025
1.0047389 0.081828125 0.0077326084
1.0047783 0.08116328 0.0077404678
1.0054637 0.080547951 0.0069370796
1.0061493 0.079929441 0.0061337571
1.0068351 0.07930775 0.0053304443
1.007521 0.078682877 0.0045271968
1.0088536 0.078097969 0.0029128145
1.00954 0.077465147 0.0021096577
1.0102266 0.076829143 0.0013065173
1.0109134 0.07618995 0.00050343596
1.0109535 0.0755108 0.00051146472
1.0116407 0.074866839 -0.00029158182
1.0123279 0.074219696 -0.0010945691
1.0123683 0.073537365 -0.0010865028
1.0130559 0.072885454 -0.0018894308
1.0137436 0.072230361 -0.0026923486
1.0137842 0.071544841 -0.0026842447
1.0181568 -0.013289168 -0.00087070267
1.0175381 -0.013801523 -5.401106e-05
1.0169193 -0.01431069 0.00076264574
1.0163003 -0.014816681 0.0015792866
1.0163405 -0.01549584 0.0015873153
1.0170401 -0.016352931 0.00078678847
1.0170804 -0.017033674 0.00079483597
1.0177804 -0.017895527 -5.6130852e-06
1.0178208 -0.01857787 2.4533319e-06
1.0185211 -0.019444497 -0.00079793634
1.0192215 -0.020314315 -0.0015983158
1.0192621 -0.020999832 -0.0015902119
1.0197085 -0.028540511 -0.0015010684
1.019749 -0.029226022 -0.0014929645
1.0191283 -0.029703379 -0.00067665923
1.0185075 -0.030177562 0.0001395811
1.0178864 -0.030648569 0.00095578679
1.0172651 -0.031116385 0.0017719764
1.0166436 -0.031581018 0.0025881068
1.016022 -0.03204247 0.003404221
1.016062 -0.032718442 0.0034122122
1.0154401 -0.033175133 0.0042282487
1.014818 -0.033628635 0.0050442689
1.0141956 -0.034078952 0.00586023
1.0142354 -0.034750152 0.0058681648
1.0136127 -0.035195716 0.0066840667
1.0136524 -0.035865318 0.0066919825
1.0130295 -0.036306094 0.0075078555
1.013069 -0.03697411 0.0075157527
1.0124459 -0.037410125 0.0083315419
1.0118226 -0.037842944 0.0091473199
1.0118619 -0.038507778 0.0091551794
1.0112382 -0.038935836 0.0099708745
1.0106144 -0.039360709 0.010786559
1.0106536 -0.040022369 0.010794382
1.0100296 -0.04044247 0.011609983
1.0100685 -0.041102543 0.011617785
1.0094442 -0.041517876 0.012433333
1.0094832 -0.042176355 0.012441117
1.0095222 -0.042834822 0.012448902
1.0088974 -0.043243796 0.013264396
1.0089363 -0.04390068 0.013272162
1.0089751 -0.044557568 0.013279927
1.00835 -0.044960182 0.014095324
1.0083889 -0.045615476 0.014103071
1.0084276 -0.046270765 0.014110818
1.0084664 -0.046926059 0.014118564
1.0078408 -0.04732072 0.014933889
1.0078795 -0.047974419 0.014941616
1.0079182 -0.048628122 0.014949344
1.0072922 -0.049016427 0.015764572
1.0073308 -0.049668536 0.015772281
1.0073694 -0.050320648 0.015779991
1.007408 -0.050972756 0.0157877
1.0067816 -0.051353101 0.016602855
1.0068201 -0.052003626 0.016610546
1.0068586 -0.052654143 0.016618235
1.0068971 -0.053304683 0.016625926
1.0069356 -0.053955201 0.016633617
1.0069741 -0.054605722 0.016641306
1.0063469 -0.054974928 0.017456308
1.0063853 -0.05562387 0.01746398
1.0064238 -0.056272797 0.017471652
1.0064622 -0.056921724 0.017479323
0.73477501 0.059803475 0.3468433
0.73477501 0.059803475 0.3468433
1.0385542 -0.072829939 -0.021243665
0.73477501 0.059803475 0.3468433
0.73477501 0.059803475 0.3468433
0.73477501 0.059803475 0.3468433
0.73477501 0.059803475 0.3468433
0.73477501 0.059803475 0.3468433
0.73477501 0.059803475 0.3468433
0.73477501 0.059803475 0.3468433
0.73477501 0.059803475 0.3468433
0.73477501 0.059803475 0.3468433
1.0098916 -0.081967123 0.015343467
1.0099303 -0.082620822 0.015351195
1.0106386 -0.083622649 0.014552379
1.0106773 -0.084277943 0.014560126
1.0107161 -0.084933251 0.014567873
1.0107549 -0.085588537 0.014575619
1.0107937 -0.086243831 0.014583366
1.0108325 -0.086899124 0.014591113
1.0108713 -0.087554418 0.014598859
1.0115803 -0.088568963 0.013800215
1.0116192 -0.089225844 0.01380798
1.0116581 -0.089882746 0.013815746
1.0123675 -0.09090367 0.013017156
1.0124065 -0.091562144 0.01302494
1.0124454 -0.092220619 0.013032724
1.0124844 -0.092879094 0.013040509
1.0131942 -0.093907952 0.012242034
1.0132333 -0.094568014 0.012249837
1.0132724 -0.095228098 0.01225764
1.0139827 -0.096263319 0.011459243
1.0140218 -0.096924976 0.011467066
1.0147324 -0.09796498 0.010668698
1.0147716 -0.09862823 0.010676539
1.0148108 -0.099291481 0.010684379
1.0155218 -0.10033783 0.0098861149
1.0169046 -0.10177208 0.008281773
1.0176159 -0.1028264 0.0074835746
1.0189995 -0.10427177 0.0058793891
1.0203832 -0.10572353 0.0042752544
1.0217675 -0.10718163 0.0026711947
1.02248 -0.10825343 0.0018732062
1.0231925 -0.10932843 0.0010752768
1.0245777 -0.11080244 -0.00052859471
1.0246183 -0.11148796 -0.00052049075
1.0428143 -0.15576327 -0.019452594
1.0435342 -0.15696232 -0.02024908
0.73477501 0.059803475 0.3468433
0.73477501 0.059803475 0.3468433
0.73477501 0.059803475 0.3468433
0.73477501 0.059803475 0.3468433
0.73477501 0.059803475 0.3468433
0.73477501 0.059803475 0.3468433
0.73477501 0.059803475 0.3468433
0.73477501 0.059803475 0.3468433
0.73477501 0.059803475 0.3468433
0.73477501 0.059803475 0.3468433
0.73477501 0.059803475 0.3468433
0.73477501 0.059803475 0.3468433
0.73477501 0.059803475 0.3468433
0.73477501 0.059803475 0.3468433
0.73477501 0.059803475 0.3468433
0.73477501 0.059803475 0.3468433
0.73477501 0.059803475 0.3468433
0.73477501 0.059803475 0.3468433
0.73477501 0.059803475 0.3468433
0.73477501 0.059803475 0.3468433
0.73477501 0.059803475 0.3468433
0.73477501 0.059803475 0.3468433
0.73477501 0.059803475 0.3468433
0.73477501 0.059803475 0.3468433
0.73477501 0.059803475 0.3468433
0.73477501 0.059803475 0.3468433
0.73477501 0.059803475 0.3468433
0.73477501 0.059803475 0.3468433
0.73477501 0.059803475 0.3468433
0.73477501 0.059803475 0.3468433
0.73477501 0.059803475 0.3468433
0.73477501 0.059803475 0.3468433
0.73477501 0.059803475 0.3468433
0.73477501 0.059803475 0.3468433
0.73477501 0.059803475 0.3468433
0.73477501 0.059803475 0.3468433
0.73477501 0.059803475 0.3468433
0.73477501 0.059803475 0.3468433
0.73477501 0.059803475 0.3468433
0.73477501 0.059803475 0.3468433
0.73477501 0.059803475 0.3468433
0.73477501 0.059803475 0.3468433
0.73477501 0.059803475 0.3468433
0.73477501 0.059803475 0.3468433
0.73477501 0.059803475 0.3468433
0.73477501 0.059803475 0.3468433
0.73477501 0.059803475 0.3468433
0.73477501 0.059803475 0.3468433
0.73477501 0.059803475 0.3468433
0.73477501 0.059803475 0.3468433
0.73477501 0.059803475 0.3468433
0.73477501 0.059803475 0.3468433
0.73477501 0.059803475 0.3468433
0.73477501 0.059803475 0.3468433
0.73477501 0.059803475 0.3468433
0.73477501 0.059803475 0.3468433
0.73477501 0.059803475 0.3468433
0.73477501 0.059803475 0.3468433
0.73477501 0.059803475 0.3468433
0.73477501 0.059803475 0.3468433
0.73477501 0.059803475 0.3468433
0.73477501 0.059803475 0.3468433
0.73477501 0.059803475 0.3468433
0.73477501 0.059803475 0.3468433
0.73477501 0.059803475 0.3468433
0.73477501 0.059803475 0.3468433
0.73477501 0.059803475 0.3468433
0.73477501 0.059803475 0.3468433
0.73477501 0.059803475 0.3468433
0.73477501 0.059803475 0.3468433
0.73477501 0.059803475 0.3468433
0.73477501 0.059803475 0.3468433
0.73477501 0.059803475 0.3468433
0.73477501 0.059803475 0.3468433
0.73477501 0.059803475 0.3468433
0.73477501 0.059803475 0.3468433
0.73477501 0.059803475 0.3468433
0.73477501 0.059803475 0.3468433
0.73477501 0.059803475 0.3468433
0.73477501 0.059803475 0.3468433
0.73477501 0.059803475 0.3468433
0.73477501 0.059803475 0.3468433
0.73477501 0.059803475 0.3468433
0.73477501 0.059803475 0.3468433
0.73477501 0.059803475 0.3468433
0.73477501 0.059803475 0.3468433
0.73477501 0.059803475 0.3468433
1.0082033 0.1551373 -0.0039419378
1.0082438 0.15445179 -0.0039338339
1.0076498 0.15354826 -0.0031118649
1.0076903 0.15286434 -0.0031037796
1.0070959 0.15196557 -0.0022818947
1.0071363 0.15128323 -0.0022738283
1.0065417 0.15038925 -0.0014519995
1.006582 0.14970851 -0.001443952
1.0066223 0.14902776 -0.0014359044
1.0060275 0.14814015 -0.00061412348
1.0054322 0.1472557 0.00020759244
1.0054724 0.14657815 0.00021560233
1.004877 0.14569847 0.0010372864
1.0049169 0.1450225 0.0010452776
1.0043212 0.1441476 0.0018668835
1.0037253 0.14327589 0.0026884736
1.0037651 0.14260308 0.0026964271
1.0031689 0.14173615 0.0035179362
1.0025727 0.14087237 0.0043394105
1.001976 0.1400118 0.0051608686
1.0020156 0.13934378 0.0051687662
1.0014187 0.13848796 0.0059901462
1.0008217 0.13763534 0.0068115108
1.0002245 0.13678588 0.007632813
1.0002638 0.13612264 0.0076406538
0.99966627 0.13527796 0.0084619271
0.99970543 0.1346163 0.0084697492
0.99910766 0.1337764 0.0092909383
0.99850971 0.13293968 0.01011209
0.99854869 0.1322812 0.010119874
0.99858767 0.13162272 0.010127659
0.99862665 0.13096425 0.010135443
0.99802816 0.13013546 0.010956529
0.99806708 0.12947859 0.010964294
0.99810594 0.1288217 0.010972059
0.99814481 0.12816481 0.010979825
0.9975459 0.12734398 0.011800788
0.9975847 0.12668869 0.011808535
0.9976235 0.1260334 0.011816282
0.99702418 0.12521893 0.012637195
0.99706286 0.12456524 0.012644923
0.9971016 0.12391152 0.012652651
0.99650192 0.12310343 0.013473467
0.99654055 0.12245131 0.013481176
0.99594057 0.12164799 0.014301958
0.99597907 0.12099747 0.014309648
0.99601758 0.12034694 0.014317338
0.99605608 0.11969642 0.014325028
0.99545568 0.11890104 0.015145695
0.99549413 0.11825211 0.015153366
0.99553251 0.11760318 0.015161037
0.9955709 0.11695424 0.015168709
0.99560934 0.11630531 0.01517638
0.99564773 0.11565638 0.015184052
0.99568617 0.11500745 0.015191724
0.99572456 0.11435851 0.015199395
0.995763 0.11370957 0.015207066
0.99580139 0.11306064 0.015214738
0.99583977 0.1124117 0.01522241
0.99523824 0.11163542 0.016042871
0.99527657 0.11098807 0.016050523
0.9953149 0.11034073 0.016058177
0.99535322 0.10969339 0.016065829
0.99539149 0.10904605 0.016073482
0.99542981 0.1083987 0.016081134
0.99546814 0.10775135 0.016088787
0.99550647 0.10710402 0.016096439
0.99554479 0.10645667 0.016104093
0.99558312 0.10580932 0.016111745
0.99562144 0.10516198 0.016119398
0.99565971 0.10451464 0.01612705
0.99569803 0.1038673 0.016134704
0.99573636 0.10321995 0.016142355
0.99577469 0.10257261 0.016150009
0.99581301 0.10192527 0.016157661
0.99585134 0.10127793 0.016165314
0.99653119 0.1007309 0.015360496
0.99656963 0.10008196 0.015368167
0.99660802 0.099433027 0.01537584
0.99664646 0.098784089 0.015383511
0.99668485 0.098135158 0.015391182
0.9973653 0.097578585 0.014586498
0.9974038 0.096928053 0.014594189
0.99808455 0.096366711 0.01378954
0.99812311 0.095714599 0.013797249
0.99880415 0.095148481 0.012992678
0.99884284 0.094494775 0.013000406
0.99888152 0.093841068 0.013008134
0.99956292 0.093268588 0.012203617
0.99960172 0.092613295 0.012211364
1.0002834 0.092036039 0.011406927
1.0003222 0.091379158 0.011414693
1.0003611 0.09072227 0.011422458
1.0010432 0.090138659 0.01061807
1.0010822 0.089480177 0.010625854
1.0011212 0.088821702 0.010633638
1.0018035 0.088231727 0.0098293526
1.0018426 0.087571658 0.0098371552
1.0025253 0.086976908 0.0090329265
1.0025644 0.086315252 0.0090407478
1.0026037 0.085653596 0.0090485699
1.0032867 0.085052483 0.0082443887
1.0033259 0.084389232 0.0082522295
1.0033653 0.083725989 0.0082600694
1.0034045 0.083062738 0.0082679102
1.004088 0.082453676 0.0074638501
1.0041274 0.081788838 0.00747171
1.0048113 0.081175007 0.0066676815
1.0054952 0.080557987 0.0058637122
1.0061795 0.079937793 0.0050597591
1.0068638 0.079314418 0.0042558652
1.0075485 0.078687862 0.0034520121
1.0082332 0.078058124 0.0026481717
1.0089182 0.077425204 0.0018443906
1.0096034 0.076789103 0.0010406255
1.0102887 0.076149821 0.00023692257
1.0109742 0.075507358 -0.00056677021
1.0110145 0.074826613 -0.00055872265
1.0117003 0.074179381 -0.0013623316
1.0117407 0.073497042 -0.0013542653
1.0124267 0.072845042 -0.0021578178
1.0124673 0.072161116 -0.0021497328
1.0131537 0.071504332 -0.0029532562
1.0131942 0.070818819 -0.0029451523
1.0181851 -0.013499658 -0.0019483669
1.0175681 -0.014013505 -0.0011310045
1.0169508 -0.014524176 -0.00031370719
1.0163333 -0.015031664 0.0005035525
1.0157157 -0.015535969 0.001320802
1.0164139 -0.016393157 0.00051964761
1.0164542 -0.0170739 0.00052769511
1.0164945 -0.01775464 0.00053574267
1.0171932 -0.018618187 -0.00026530915
1.0172336 -0.01930052 -0.00025724282
1.0179324 -0.020168835 -0.0010582382
1.0186316 -0.021040337 -0.0018592234
1.0190372 -0.027895501 -0.0017781839
1.0190779 -0.028581018 -0.00177008
1.0184587 -0.029059866 -0.00095313136
1.0184993 -0.029743791 -0.00094504625
1.0178797 -0.03021788 -0.00012818137
1.0172602 -0.030688792 0.00068864593
1.0166403 -0.031156516 0.0015054629
1.0160203 -0.031621054 0.0023222149
1.0160605 -0.032298621 0.002330225
1.0154401 -0.032758385 0.003146945
1.0148197 -0.033214983 0.003963606
1.014199 -0.033668388 0.0047802506
1.0142388 -0.034341175 0.0047882041
1.0136179 -0.034789812 0.0056047682
1.0129968 -0.035235282 0.0064212978
1.0130365 -0.035904884 0.0064292136
1.0124151 -0.036345564 0.0072457078
1.0124545 -0.037013583 0.0072536049
1.0118328 -0.037449505 0.0080700219
1.0118723 -0.03811593 0.0080778999
1.0112504 -0.038547061 0.0088942815
1.0106282 -0.038975026 0.0097106006
1.0106674 -0.039638285 0.0097184423
1.0100449 -0.040061466 0.010534733
1.0100842 -0.040723119 0.010542554
1.0094614 -0.041141547 0.011358761
1.0088385 -0.041556787 0.01217493
1.0088775 -0.042215262 0.012182714
1.0089165 -0.042873733 0.012190498
1.0082932 -0.043282613 0.01300662
1.008332 -0.043939497 0.013014385
1.0083709 -0.044596381 0.013022151
1.0084097 -0.045253273 0.013029916
1.007786 -0.045654196 0.013845917
1.0078248 -0.046309486 0.013853664
1.0078636 -0.046964779 0.01386141
1.0079024 -0.04762008 0.013869157
1.0072782 -0.048013046 0.014685087
1.0073168 -0.048666749 0.014692815
1.0073556 -0.049320463 0.014700543
1.0067309 -0.04970707 0.015516376
1.0067695 -0.050359178 0.015524086
1.0068082 -0.05101129 0.015531794
1.0068468 -0.051663414 0.015539504
1.0062217 -0.052042063 0.016355265
1.0062602 -0.052692581 0.016362956
1.0062987 -0.053343121 0.016370645
1.0056732 -0.053715404 0.01718631
1.0063757 -0.05464416 0.016386027
1.0064142 -0.055294678 0.016393716
1.0057884 -0.055662215 0.017209325
1.0058268 -0.056311142 0.017216995
1.0058652 -0.056960069 0.017224668
1.0059037 -0.05760901 0.017232338
1.0052774 -0.057968576 0.018047875
0.73477501 0.059803475 0.3468433
0.73477501 0.059803475 0.3468433
0.73477501 0.059803475 0.3468433
1.0373508 -0.074752912 -0.02069477
1.0373937 -0.075476594 -0.020686215
1.0374793 -0.076923981 -0.020669105
1.0376507 -0.079818726 -0.020634884
1.0377363 -0.081266098 -0.020617774
1.0377792 -0.081989795 -0.020609219
1.037822 -0.082713477 -0.020600663
1.0378648 -0.083437167 -0.020592108
1.0379077 -0.084160864 -0.020583553
1.0379505 -0.084884547 -0.020574998
1.0379933 -0.085608229 -0.020566443
1.0380362 -0.086331911 -0.020557888
1.038079 -0.087055616 -0.020549333
1.0381218 -0.087779313 -0.020540776
1.0381647 -0.088502996 -0.020532221
1.0382075 -0.089226693 -0.020523665
0.73477501 0.059803475 0.3468433
0.73477501 0.059803475 0.3468433
0.73477501 0.059803475 0.3468433
0.73477501 0.059803475 0.3468433
0.73477501 0.059803475 0.3468433
0.73477501 0.059803475 0.3468433
0.73477501 0.059803475 0.3468433
0.73477501 0.059803475 0.3468433
1.0085452 -0.080356479 0.015878703
1.0085838 -0.081008591 0.015886413
1.0086223 -0.08166071 0.015894122
1.009329 -0.082659446 0.015094666
1.0093676 -0.083313152 0.015102393
1.0094063 -0.083966851 0.015110121
1.0094451 -0.084620565 0.015117849
1.0101521 -0.085627258 0.014318465
1.010191 -0.086282551 0.014326212
1.0102297 -0.086937845 0.014333959
1.0102684 -0.087593138 0.014341705
1.0103073 -0.088248432 0.014349451
1.0110149 -0.089264661 0.013550205
1.0110538 -0.089921564 0.013557971
1.0110927 -0.090578444 0.013565736
1.0118008 -0.091601051 0.012766537
1.0118397 -0.092259534 0.012774321
1.0118787 -0.092918009 0.012782106
1.0125871 -0.093946949 0.011983009
1.0126262 -0.094607018 0.011990813
1.0133349 -0.095640756 0.011191772
1.013374 -0.096302412 0.011199594
1.0134132 -0.096964076 0.011207417
1.0141222 -0.098004177 0.010408425
1.0141615 -0.098667428 0.010416265
1.0148708 -0.099712282 0.0096173566
1.0155804 -0.10076033 0.0088184616
1.0162901 -0.10181156 0.0080196252
1.0176704 -0.10325235 0.0064141098
1.019051 -0.10469951 0.0048086727
1.020432 -0.10615304 0.0032033077
1.0211428 -0.10722176 0.0024046814
1.0225245 -0.10868641 0.00079944794
1.0232357 -0.10976308 9.1555893e-07
1.0421485 -0.15580603 -0.019736586
1.0421914 -0.15652972 -0.019728031
0.73477501 0.059803475 0.3468433
0.73477501 0.059803475 0.3468433
0.73477501 0.059803475 0.3468433
0.73477501 0.059803475 0.3468433
0.73477501 0.059803475 0.3468433
0.73477501 0.059803475 0.3468433
0.73477501 0.059803475 0.3468433
0.73477501 0.059803475 0.3468433
0.73477501 0.059803475 0.3468433
0.73477501 0.059803475 0.3468433
0.73477501 0.059803475 0.3468433
0.73477501 0.059803475 0.3468433
0.73477501 0.059803475 0.3468433
0.73477501 0.059803475 0.3468433
0.73477501 0.059803475 0.3468433
0.73477501 0.059803475 0.3468433
0.73477501 0.059803475 0.3468433
0.73477501 0.059803475 0.3468433
0.73477501 0.059803475 0.3468433
0.73477501 0.059803475 0.3468433
0.73477501 0.059803475 0.3468433
0.73477501 0.059803475 0.3468433
0.73477501 0.059803475 0.3468433
0.73477501 0.059803475 0.3468433
0.73477501 0.059803475 0.3468433
0.73477501 0.059803475 0.3468433
0.73477501 0.059803475 0.3468433
0.73477501 0.059803475 0.3468433
0.73477501 0.059803475 0.3468433
0.73477501 0.059803475 0.3468433
0.73477501 0.059803475 0.3468433
0.73477501 0.059803475 0.3468433
0.73477501 0.059803475 0.3468433
0.73477501 0.059803475 0.3468433
0.73477501 0.059803475 0.3468433
0.73477501 0.059803475 0.3468433
0.73477501 0.059803475 0.3468433
0.73477501 0.059803475 0.3468433
0.73477501 0.059803475 0.3468433
0.73477501 0.059803475 0.3468433
0.73477501 0.059803475 0.3468433
0.73477501 0.059803475 0.3468433
0.73477501 0.059803475 0.3468433
0.73477501 0.059803475 0.3468433
0.73477501 0.059803475 0.3468433
0.73477501 0.059803475 0.3468433
0.73477501 0.059803475 0.3468433
0.73477501 0.059803475 0.3468433
0.73477501 0.059803475 0.3468433
0.73477501 0.059803475 0.3468433
0.73477501 0.059803475 0.3468433
0.73477501 0.059803475 0.3468433
0.73477501 0.059803475 0.3468433
0.73477501 0.059803475 0.3468433
0.73477501 0.059803475 0.3468433
0.73477501 0.059803475 0.3468433
0.73477501 0.059803475 0.3468433
0.73477501 0.059803475 0.3468433
0.73477501 0.059803475 0.3468433
0.73477501 0.059803475 0.3468433
0.73477501 0.059803475 0.3468433
0.73477501 0.059803475 0.3468433
0.73477501 0.059803475 0.3468433
0.73477501 0.059803475 0.3468433
0.73477501 0.059803475 0.3468433
0.73477501 0.059803475 0.3468433
0.73477501 0.059803475 0.3468433
0.73477501 0.059803475 0.3468433
0.73477501 0.059803475 0.3468433
0.73477501 0.059803475 0.3468433
0.73477501 0.059803475 0.3468433
0.73477501 0.059803475 0.3468433
0.73477501 0.059803475 0.3468433
0.73477501 0.059803475 0.3468433
0.73477501 0.059803475 0.3468433
0.73477501 0.059803475 0.3468433
0.73477501 0.059803475 0.3468433
0.73477501 0.059803475 0.3468433
0.73477501 0.059803475 0.3468433
0.73477501 0.059803475 0.3468433
0.73477501 0.059803475 0.3468433
0.73477501 0.059803475 0.3468433
0.73477501 0.059803475 0.3468433
0.73477501 0.059803475 0.3468433
0.73477501 0.059803475 0.3468433
0.73477501 0.059803475 0.3468433
1.0075727 0.1550968 -0.0042109434
1.0076132 0.15441127 -0.0042028395
1.0070206 0.15350784 -0.0033802488
1.0070611 0.15282393 -0.0033721637
1.0064683 0.15192525 -0.0025496541
1.0065087 0.15124293 -0.0025415877
1.0065491 0.15056059 -0.0025335215
1.0059559 0.14966829 -0.001711084
1.0059962 0.14898755 -0.0017030366
1.0054027 0.14810002 -0.00088063395
1.004809 0.14721566 -5.8293488e-05
1.0048491 0.14653811 -5.0283605e-05
1.0042552 0.14565852 0.00077202503
1.0042951 0.14498255 0.00078001618
1.0037009 0.14410776 0.0016022437
1.0037408 0.14343336 0.0016102161
1.0031463 0.14256334 0.0024324148
1.0025516 0.14169648 0.0032545484
1.0025913 0.14102529 0.003262483
1.0019963 0.14016321 0.0040845601
1.0014011 0.13930431 0.0049066246
1.0014406 0.13863628 0.0049145217
1.0008452 0.13778217 0.0057365075
1.0002495 0.13693121 0.0065584779
0.9996537 0.13608345 0.0073803859
0.99969292 0.1354202 0.0073882267
0.99909681 0.13457721 0.0082101021
0.99850047 0.1337374 0.009031917
0.99853957 0.13307734 0.0090397196
0.99794298 0.13224229 0.0098614804
0.99798197 0.13158381 0.0098692644
0.99802095 0.13092534 0.0098770484
0.99742395 0.13009666 0.010698755
0.99746281 0.12943977 0.010706522
0.99750167 0.12878288 0.010714287
0.99754059 0.128126 0.010722052
0.99694312 0.12730527 0.011543641
0.99698192 0.12664998 0.011551388
0.99702072 0.12599468 0.011559133
0.99705952 0.12533937 0.01156688
0.99646157 0.12452661 0.0123884
0.99650025 0.1238729 0.012396127
0.99590206 0.12306491 0.013217568
0.99594069 0.12241279 0.013225277
0.99597925 0.12176067 0.013232986
0.9953807 0.12095903 0.014054374
0.9954192 0.1203085 0.014062064
0.99545771 0.11965798 0.014069754
0.99485874 0.1188627 0.014891041
0.99489719 0.11821377 0.014898713
0.99493557 0.11756483 0.014906385
0.99497396 0.1169159 0.014914056
0.9950124 0.11626697 0.014921728
0.99505079 0.11561804 0.014929399
0.99508923 0.1149691 0.01493707
0.99512762 0.11432017 0.014944742
0.99516606 0.11367123 0.014952414
