# .PCD v0.7 - Point Cloud Data file format
VERSION 0.7
FIELDS x y z
SIZE 4 4 4
TYPE F F F
COUNT 1 1 1
WIDTH 1381
HEIGHT 1
VIEWPOINT 0 0 0 1 0 0 0
POINTS 1381
DATA ascii
0.73870528 0.065116689 0.0067087645
0.73875797 0.064427912 0.0066763796
0.73873848 0.063848846 0.0076615219
0.73871875 0.063272953 0.008646843
0.7387712 0.062587358 0.0086146072
0.73875111 0.06201623 0.0096001215
0.73873079 0.06144828 0.010585816
0.73871022 0.0608835 0.01157163
0.73868936 0.06032189 0.012557591
0.73866832 0.059763465 0.013543734
0.73864698 0.059208199 0.014529995
0.73869872 0.058532126 0.014498207
0.73867702 0.057981633 0.015484722
0.73865509 0.057434306 0.016471356
0.73870659 0.05676141 0.016439719
0.7386843 0.056218844 0.017426606
0.73873568 0.055547535 0.017395042
0.73871303 0.055009734 0.018382125
0.73876429 0.054340012 0.018350635
0.73881549 0.053670276 0.018319145
0.73879236 0.053138822 0.019306526
0.7388435 0.052470684 0.019275112
0.73889458 0.051802538 0.019243697
0.73894572 0.051134404 0.019212283
0.738922 0.050610881 0.020200066
0.73897296 0.049944337 0.020168725
0.73902398 0.049277779 0.020137386
0.73907495 0.048611227 0.020106046
0.73912597 0.047944669 0.020074707
0.73910147 0.047430668 0.021062907
0.73915237 0.046765707 0.021031642
0.73920321 0.046100736 0.021000376
0.7391783 0.045593102 0.021988906
0.73922902 0.044929717 0.021957716
0.73927975 0.044266343 0.021926526
0.73933053 0.043602958 0.021895334
0.73938125 0.042939577 0.021864144
0.73935562 0.04244145 0.022853089
0.73940623 0.041779656 0.022821974
0.73945683 0.041117869 0.022790859
0.7395075 0.040456071 0.022759741
0.7395581 0.039794277 0.022728626
0.73960876 0.039132483 0.02269751
0.73965937 0.038470697 0.022666395
0.73971003 0.037808903 0.022635277
0.73976064 0.037147105 0.022604162
0.73981124 0.036485311 0.022573045
0.73986191 0.035823517 0.022541929
0.73991251 0.03516173 0.022510814
0.73996317 0.034499936 0.022479696
0.74001378 0.033838145 0.022448581
0.74006444 0.033176344 0.022417465
0.74011505 0.03251455 0.022386348
0.74016565 0.031852763 0.022355232
0.74021631 0.031190967 0.022324117
0.74026692 0.030529181 0.022293001
0.74031758 0.029867377 0.022261884
0.74036819 0.029205583 0.022230769
0.74041885 0.028543796 0.022199651
0.74046946 0.027882008 0.022168536
0.74052006 0.027220206 0.02213742
0.74065006 0.026355071 0.021084376
0.74070078 0.025691696 0.021053184
0.74083114 0.024821792 0.019999886
0.74096173 0.023948718 0.018946467
0.74109256 0.02307247 0.017892869
0.74122363 0.02219305 0.016839152
0.74135494 0.021310462 0.015785288
0.74140632 0.02063914 0.015753724
0.74153799 0.019751782 0.014699603
0.74175036 0.018643625 0.012622735
0.74180204 0.017967537 0.012590946
0.74201512 0.016849859 0.010513629
0.74214792 0.015948229 0.0094588678
0.74220002 0.015267393 0.0094268564
0.74233311 0.014360985 0.008371871
0.74246651 0.01345141 0.0073167067
0.74251884 0.012767405 0.0072845463
0.7426526 0.011853056 0.0062291878
0.74270505 0.011167463 0.0061969524
0.7427575 0.01048187 0.0061647175
0.74280995 0.0097962767 0.0061324826
0.7429443 0.0088739824 0.0050767199
0.74299687 0.0081868088 0.0050444105
0.74304944 0.0074996203 0.0050121001
0.74310201 0.0068124318 0.0049797902
0.74315459 0.0061252434 0.0049474798
0.74320716 0.0054380693 0.0049151704
0.74325973 0.0047508809 0.0048828605
0.7433123 0.0040636924 0.0048505501
0.74336487 0.0033765037 0.0048182402
0.74341744 0.0026893301 0.0047859307
0.7435531 0.0017495959 0.0037293779
0.74360579 0.0010608193 0.0036969932
0.74365848 0.00037205749 0.003664609
0.74371117 -0.00031671909 0.0036322242
0.74376392 -0.0010054957 0.0035998393
0.74381661 -0.0016942723 0.0035674546
0.7438693 -0.002383034 0.0035350705
0.743922 -0.0030718106 0.0035026856
0.74397469 -0.0037605872 0.0034703007
0.74402738 -0.0044493489 0.0034379167
0.74408007 -0.0051381253 0.0034055319
0.74413276 -0.0058269021 0.003373147
0.74418545 -0.0065156785 0.0033407621
0.74423814 -0.0072044404 0.0033083782
0.74429083 -0.0078932168 0.0032759933
0.74434352 -0.0085819932 0.0032436084
0.74439621 -0.0092707705 0.0032112235
0.7444489 -0.0099595319 0.0031788396
0.74450159 -0.010648308 0.0031464547
0.74455428 -0.011337085 0.0031140698
0.74452144 -0.01174157 0.0041074203
0.74457401 -0.012428759 0.00407511
0.74462658 -0.013115947 0.0040428001
0.74467915 -0.013803136 0.0040104897
0.74473172 -0.014490309 0.0039781802
0.7447843 -0.015177513 0.0039458694
0.74483687 -0.015864687 0.00391356
0.74488944 -0.016551875 0.0038812498
0.74494201 -0.017239049 0.0038489404
0.74499458 -0.017926252 0.0038166295
0.74504715 -0.018613426 0.0037843201
0.74518663 -0.019602345 0.0027254547
0.74523932 -0.020291137 0.0026930694
0.74529201 -0.020979898 0.0026606852
0.7453447 -0.021668674 0.0026283003
0.74548477 -0.022665532 0.0015690321
0.74553758 -0.023355898 0.0015365727
0.74559039 -0.024046261 0.0015041132
0.74573094 -0.025049459 0.00044457734
0.74578387 -0.025741426 0.00041204249
0.74583679 -0.026433364 0.00037950903
0.70748293 0.1113534 0.44825611
0.70748293 0.1113534 0.44825611
0.70748293 0.1113534 0.44825611
0.70748293 0.1113534 0.44825611
0.70748293 0.1113534 0.44825611
0.70748293 0.1113534 0.44825611
0.70748293 0.1113534 0.44825611
0.70748293 0.1113534 0.44825611
0.70748293 0.1113534 0.44825611
0.70748293 0.1113534 0.44825611
0.70748293 0.1113534 0.44825611
0.70748293 0.1113534 0.44825611
0.70748293 0.1113534 0.44825611
0.70748293 0.1113534 0.44825611
0.70748293 0.1113534 0.44825611
0.70748293 0.1113534 0.44825611
0.70748293 0.1113534 0.44825611
0.70748293 0.1113534 0.44825611
0.70748293 0.1113534 0.44825611
0.70748293 0.1113534 0.44825611
0.70748293 0.1113534 0.44825611
0.70748293 0.1113534 0.44825611
0.70748293 0.1113534 0.44825611
0.70748293 0.1113534 0.44825611
0.70748293 0.1113534 0.44825611
0.70748293 0.1113534 0.44825611
0.70748293 0.1113534 0.44825611
0.70748293 0.1113534 0.44825611
0.70748293 0.1113534 0.44825611
0.70748293 0.1113534 0.44825611
0.70748293 0.1113534 0.44825611
0.70748293 0.1113534 0.44825611
0.70748293 0.1113534 0.44825611
0.70748293 0.1113534 0.44825611
0.70748293 0.1113534 0.44825611
0.70748293 0.1113534 0.44825611
0.70748293 0.1113534 0.44825611
0.70748293 0.1113534 0.44825611
0.70748293 0.1113534 0.44825611
0.70748293 0.1113534 0.44825611
0.70748293 0.1113534 0.44825611
0.70748293 0.1113534 0.44825611
0.70748293 0.1113534 0.44825611
0.70748293 0.1113534 0.44825611
0.70748293 0.1113534 0.44825611
0.70748293 0.1113534 0.44825611
0.70748293 0.1113534 0.44825611
0.70748293 0.1113534 0.44825611
0.70748293 0.1113534 0.44825611
0.70748293 0.1113534 0.44825611
0.70748293 0.1113534 0.44825611
0.70748293 0.1113534 0.44825611
0.70748293 0.1113534 0.44825611
0.70748293 0.1113534 0.44825611
0.70748293 0.1113534 0.44825611
0.70748293 0.1113534 0.44825611
0.70748293 0.1113534 0.44825611
0.70748293 0.1113534 0.44825611
0.70748293 0.1113534 0.44825611
0.70748293 0.1113534 0.44825611
0.70748293 0.1113534 0.44825611
0.70748293 0.1113534 0.44825611
0.70748293 0.1113534 0.44825611
0.70748293 0.1113534 0.44825611
0.70748293 0.1113534 0.44825611
0.70748293 0.1113534 0.44825611
0.70748293 0.1113534 0.44825611
0.70748293 0.1113534 0.44825611
0.70748293 0.1113534 0.44825611
0.70748293 0.1113534 0.44825611
0.70748293 0.1113534 0.44825611
0.70748293 0.1113534 0.44825611
0.70748293 0.1113534 0.44825611
0.70748293 0.1113534 0.44825611
0.70748293 0.1113534 0.44825611
0.70748293 0.1113534 0.44825611
0.70748293 0.1113534 0.44825611
0.70748293 0.1113534 0.44825611
0.70748293 0.1113534 0.44825611
0.70748293 0.1113534 0.44825611
0.70748293 0.1113534 0.44825611
0.73594171 0.097908705 0.0012351094
0.73599529 0.097208828 0.0012022025
0.73598403 0.096542604 0.0021830841
0.73603749 0.095844306 0.002150252
0.7360909 0.095146015 0.0021174196
0.7361443 0.094447717 0.0020845872
0.73619771 0.093749426 0.0020517549
0.73631656 0.093009531 0.0010047607
0.73637009 0.092309654 0.00097185379
0.73642361 0.091609769 0.00093894667
0.7364772 0.090909883 0.00090603973
0.73653072 0.090210006 0.00087313273
0.73658425 0.08951012 0.00084022578
0.73679841 0.086710602 0.00070859812
0.73685199 0.086010717 0.000675691
0.73690552 0.085310832 0.00064278406
0.73695904 0.084610954 0.00060987705
0.73701262 0.083911069 0.00057697011
0.73699909 0.083274998 0.0015592696
0.7370525 0.082576707 0.0015264374
0.73703861 0.081945397 0.0025089919
0.7370919 0.081248693 0.0024762342
0.73707759 0.080622144 0.0034589814
0.73706311 0.079998776 0.004441909
0.73711616 0.079305246 0.0044093006
0.73716921 0.078611709 0.0043766922
0.73722225 0.077918172 0.0043440834
0.73727536 0.077224642 0.0043114754
0.73732841 0.076531105 0.0042788666
0.73738146 0.075837575 0.0042462582
0.73743451 0.075144038 0.0042136498
0.73748755 0.074450508 0.0041810414
0.7375406 0.073756978 0.004148433
0.73759371 0.073063448 0.0041158246
0.73764676 0.072369911 0.0040832157
0.73769981 0.071676366 0.0040506069
0.73775285 0.070982844 0.0040179989
0.7378059 0.070289299 0.0039853901
0.73785895 0.069595776 0.0039527821
0.73791206 0.068902232 0.0039201733
0.73789537 0.06830743 0.0049044131
0.7379483 0.067615487 0.0048718792
0.73800123 0.066923536 0.0048393449
0.73798406 0.066335082 0.0058238842
0.73803687 0.065644719 0.0057914248
0.73808968 0.064954363 0.0057589654
0.73807198 0.064372256 0.0067438325
0.73812467 0.063683487 0.0067114481
0.73810667 0.063106135 0.0076965089
0.73808837 0.062531963 0.008681749
0.73814082 0.061846364 0.0086495141
0.73812222 0.06127695 0.0096349483
0.73810333 0.060710717 0.010620561
0.7380842 0.060147651 0.011606294
0.73806483 0.059587758 0.012592175
0.7381168 0.058908507 0.012560238
0.73809707 0.058353383 0.013546375
0.7380771 0.057801422 0.014532628
0.7380569 0.057252642 0.015519063
0.73810846 0.056578159 0.015487351
0.73808789 0.056034137 0.016473979
0.73813939 0.055361241 0.01644234
0.73819083 0.054688327 0.016410701
0.73816979 0.054150663 0.017397657
0.73822117 0.053479347 0.017366095
0.73827249 0.052808031 0.01733453
0.73825097 0.052276708 0.018321754
0.73830217 0.051606979 0.018290266
0.73835343 0.050937254 0.018258777
0.73840469 0.050267518 0.018227287
0.73838252 0.049744133 0.019214885
0.7384336 0.049075995 0.019183472
0.73848474 0.048407853 0.019152056
0.73853582 0.047739707 0.019120641
0.73851311 0.047224253 0.020108642
0.73856407 0.04655771 0.020077303
0.7386151 0.045891151 0.020045964
0.73866606 0.0452246 0.020014623
0.73864269 0.044717077 0.021002967
0.73869354 0.044052117 0.020971702
0.73874444 0.043387145 0.020940436
0.73879528 0.042722173 0.020909172
0.73884618 0.042057209 0.020877907
0.73889703 0.041392241 0.020846641
0.73894793 0.040727276 0.020815376
0.73899877 0.040062305 0.02078411
0.73904967 0.03939734 0.020752845
0.73910052 0.038732372 0.020721579
0.73915142 0.038067408 0.020690314
0.73920226 0.037402436 0.020659048
0.73925316 0.036737464 0.020627784
0.73930401 0.0360725 0.020596517
0.73927885 0.035588793 0.021586012
0.73932958 0.03492542 0.02155482
0.73938036 0.034262035 0.02152363
0.73943108 0.033598661 0.02149244
0.73948187 0.032935277 0.021461248
0.73953259 0.032271896 0.021430058
0.73958337 0.031608511 0.021398867
0.7396341 0.03094513 0.021367677
0.73968488 0.030281754 0.021336487
0.7397356 0.029618371 0.021305295
0.73978633 0.028954988 0.021274105
0.73983711 0.028291613 0.021242913
0.73988783 0.027628237 0.021211723
0.73993862 0.026964847 0.021180531
0.74006712 0.026097998 0.020127539
0.74019587 0.025227971 0.019074423
0.74032491 0.024354771 0.018021131
0.74045414 0.023478393 0.016967719
0.7405836 0.022598844 0.015914159
0.74063498 0.021927537 0.015882595
0.74076486 0.021043219 0.014828779
0.74089491 0.020155732 0.013774845
0.74102527 0.019265071 0.012720731
0.74115586 0.018371245 0.011666499
0.7412867 0.017474225 0.010612085
0.74141777 0.016574048 0.0095575554
0.74154907 0.015670702 0.0085028755
0.74168062 0.014764174 0.0074480157
0.74173295 0.014080147 0.0074158544
0.74186486 0.013168869 0.0063608009
0.74191731 0.012483268 0.0063285655
0.74196976 0.011797661 0.0062963297
0.74210215 0.010880024 0.0052409479
0.74215472 0.010192843 0.005208638
0.74220729 0.0095056621 0.0051763281
0.74225986 0.0088184588 0.0051440173
0.74231243 0.0081312852 0.0051117078
0.742365 0.0074440963 0.0050793979
0.74241757 0.0067569078 0.0050470876
0.74247015 0.0060697193 0.0050147772
0.74260366 0.0051378114 0.0039587542
0.74265635 0.004449035 0.0039263694
0.74270904 0.0037602584 0.0038939847
0.74276173 0.0030714967 0.0038616005
0.74281442 0.0023827201 0.0038292157
0.74286711 0.0016939435 0.0037968308
0.7429198 0.0010051669 0.0037644461
0.74297249 0.00031640517 0.0037320619
0.74302518 -0.0003723714 0.0036996771
0.74307793 -0.001061148 0.0036672922
0.74313062 -0.0017499246 0.0036349075
0.74318331 -0.0024386863 0.0036025234
0.74323601 -0.0031274629 0.0035701385
0.7432887 -0.0038162395 0.0035377536
0.74334139 -0.004505001 0.0035053696
0.74339408 -0.0051937778 0.0034729848
0.74344677 -0.0058825542 0.0034405999
0.74349946 -0.0065713311 0.003408215
0.74355215 -0.0072600925 0.0033758311
0.74360484 -0.0079488689 0.0033434462
0.74365753 -0.0086376462 0.0033110613
0.74371022 -0.0093264226 0.0032786764
0.74376291 -0.010015184 0.0032462925
0.7438156 -0.01070396 0.0032139076
0.74386829 -0.011392738 0.0031815227
0.74392098 -0.012081499 0.0031491388
0.74388963 -0.012484282 0.0041424073
0.7439422 -0.013171471 0.0041100974
0.74399477 -0.01385866 0.004077787
0.74404734 -0.014545834 0.0040454776
0.74409992 -0.015233037 0.0040131668
0.74415249 -0.015920211 0.0039808573
0.74420506 -0.016607398 0.0039485474
0.74425763 -0.017294573 0.003916238
0.74439526 -0.01828046 0.0028576767
0.74444795 -0.018969236 0.0028252918
0.74450064 -0.019657997 0.0027929076
0.74455333 -0.020346789 0.0027605223
0.74460602 -0.02103555 0.0027281381
0.74465871 -0.021724327 0.0026957532
0.74479717 -0.022721313 0.0016366405
0.74484998 -0.023411678 0.0016041811
0.74498886 -0.024413429 0.000544874
0.74504179 -0.025105366 0.00051234057
0.74509472 -0.025797334 0.00047980572
0.70748293 0.1113534 0.44825611
0.70748293 0.1113534 0.44825611
0.70748293 0.1113534 0.44825611
0.70748293 0.1113534 0.44825611
0.70748293 0.1113534 0.44825611
0.70748293 0.1113534 0.44825611
0.70748293 0.1113534 0.44825611
0.70748293 0.1113534 0.44825611
0.70748293 0.1113534 0.44825611
0.70748293 0.1113534 0.44825611
0.70748293 0.1113534 0.44825611
0.70748293 0.1113534 0.44825611
0.70748293 0.1113534 0.44825611
0.70748293 0.1113534 0.44825611
0.70748293 0.1113534 0.44825611
0.70748293 0.1113534 0.44825611
0.70748293 0.1113534 0.44825611
0.70748293 0.1113534 0.44825611
0.70748293 0.1113534 0.44825611
0.70748293 0.1113534 0.44825611
0.70748293 0.1113534 0.44825611
0.70748293 0.1113534 0.44825611
0.70748293 0.1113534 0.44825611
0.70748293 0.1113534 0.44825611
0.70748293 0.1113534 0.44825611
0.70748293 0.1113534 0.44825611
0.70748293 0.1113534 0.44825611
0.70748293 0.1113534 0.44825611
0.70748293 0.1113534 0.44825611
0.70748293 0.1113534 0.44825611
0.70748293 0.1113534 0.44825611
0.70748293 0.1113534 0.44825611
0.70748293 0.1113534 0.44825611
0.70748293 0.1113534 0.44825611
0.70748293 0.1113534 0.44825611
0.70748293 0.1113534 0.44825611
0.70748293 0.1113534 0.44825611
0.70748293 0.1113534 0.44825611
0.70748293 0.1113534 0.44825611
0.70748293 0.1113534 0.44825611
0.70748293 0.1113534 0.44825611
0.70748293 0.1113534 0.44825611
0.70748293 0.1113534 0.44825611
0.70748293 0.1113534 0.44825611
0.70748293 0.1113534 0.44825611
0.70748293 0.1113534 0.44825611
0.70748293 0.1113534 0.44825611
0.70748293 0.1113534 0.44825611
0.70748293 0.1113534 0.44825611
0.70748293 0.1113534 0.44825611
0.70748293 0.1113534 0.44825611
0.70748293 0.1113534 0.44825611
0.70748293 0.1113534 0.44825611
0.70748293 0.1113534 0.44825611
0.70748293 0.1113534 0.44825611
0.70748293 0.1113534 0.44825611
0.70748293 0.1113534 0.44825611
0.70748293 0.1113534 0.44825611
0.70748293 0.1113534 0.44825611
0.70748293 0.1113534 0.44825611
0.70748293 0.1113534 0.44825611
0.70748293 0.1113534 0.44825611
0.70748293 0.1113534 0.44825611
0.70748293 0.1113534 0.44825611
0.70748293 0.1113534 0.44825611
0.70748293 0.1113534 0.44825611
0.70748293 0.1113534 0.44825611
0.70748293 0.1113534 0.44825611
0.70748293 0.1113534 0.44825611
0.70748293 0.1113534 0.44825611
0.70748293 0.1113534 0.44825611
0.70748293 0.1113534 0.44825611
0.70748293 0.1113534 0.44825611
0.70748293 0.1113534 0.44825611
0.70748293 0.1113534 0.44825611
0.70748293 0.1113534 0.44825611
0.70748293 0.1113534 0.44825611
0.70748293 0.1113534 0.44825611
0.70748293 0.1113534 0.44825611
0.70748293 0.1113534 0.44825611
0.73525399 0.098523013 0.00032311754
0.70748293 0.1113534 0.44825611
0.70748293 0.1113534 0.44825611
0.73535174 0.096452393 0.0012378371
0.73534197 0.095787883 0.0022186378
0.73539543 0.095089592 0.0021858057
0.73551238 0.094352745 0.0011391162
0.73556596 0.093652867 0.0011062092
0.73561949 0.092952982 0.0010733024
0.73567301 0.092253104 0.0010403953
0.73572654 0.091553219 0.0010074882
0.73578012 0.090853333 0.00097458123
0.73583364 0.090153456 0.00094167428
0.73588717 0.089453571 0.00090876734
0.73594075 0.088753693 0.00087586039
0.73599428 0.088053815 0.00084295362
0.7360478 0.08735393 0.00081004662
0.73610139 0.086654052 0.00077713968
0.73615491 0.085954159 0.00074423256
0.73620844 0.085254282 0.00071132561
0.73626202 0.084554397 0.00067841861
0.73631555 0.083854519 0.00064551167
0.73630357 0.083218582 0.0016276557
0.73635703 0.082520284 0.0015948233
0.7363447 0.081889108 0.0025772224
0.73639798 0.081192404 0.0025444648
0.73638529 0.080565982 0.0035270571
0.73643845 0.079870857 0.003494374
0.73642546 0.079249211 0.0044772201
0.73647851 0.078555673 0.0044446117
0.73653156 0.077862136 0.0044120029
0.7365846 0.077168606 0.0043793949
0.73663765 0.076475069 0.0043467861
0.7366907 0.075781539 0.0043141777
0.73674381 0.075088002 0.0042815693
0.73679686 0.074394472 0.0042489609
0.7368499 0.073700935 0.0042163525
0.73697025 0.072919652 0.0031675431
0.736956 0.072313868 0.0041511352
0.73700905 0.07162033 0.0041185264
0.7370621 0.0709268 0.0040859184
0.7371152 0.070233263 0.0040533096
0.73716825 0.069539741 0.0040207016
0.7372213 0.068846196 0.0039880928
0.73727435 0.068152674 0.0039554844
0.73725915 0.067559578 0.0049396437
0.73731208 0.066867627 0.0049071098
0.73736501 0.066175677 0.0048745759
0.73734927 0.065588936 0.0058590337
0.73740208 0.06489858 0.0058265748
0.73738599 0.064316601 0.0068112863
0.73743868 0.063627832 0.0067789019
0.73742223 0.063050605 0.0077638072
0.7374748 0.062363427 0.0077314973
0.73745799 0.061790969 0.0087166568
0.73751044 0.061105367 0.008684421
0.73749328 0.060537677 0.0096697742
0.73747587 0.05997315 0.010655307
0.73752809 0.059290726 0.01062322
0.73751026 0.05873096 0.011608947
0.73749226 0.058174375 0.012594823
0.73747396 0.057620961 0.013580877
0.73752582 0.056943301 0.013549015
0.73750716 0.056394652 0.014535264
0.7375589 0.055718571 0.014503476
0.73753989 0.055174682 0.015489979
0.73759151 0.054500192 0.015458265
0.73764312 0.053825706 0.015426553
0.73762363 0.053288158 0.016413324
0.73767513 0.052615255 0.016381685
0.73772657 0.051942352 0.016350046
0.7377066 0.051411159 0.017337147
0.73775798 0.050739843 0.017305583
0.7378093 0.050068527 0.017274018
0.73778886 0.049543682 0.018261386
0.73784012 0.04887395 0.018229896
0.73789138 0.048204228 0.018198408
0.73794258 0.047534492 0.018166918
0.73799384 0.046864767 0.01813543
0.73797262 0.046349443 0.019123245
0.73802376 0.045681294 0.01909183
0.73807484 0.045013163 0.019060416
0.73812598 0.044345018 0.019029001
0.73810416 0.043837629 0.020017222
0.73815519 0.043171078 0.019985881
0.73820615 0.042504519 0.019954542
0.73825717 0.041837968 0.019923201
0.73830819 0.041171409 0.019891862
0.73835915 0.040504858 0.019860521
0.73841017 0.039838307 0.019829182
0.73846114 0.039171755 0.019797841
0.73851216 0.038505197 0.019766502
0.73856312 0.037838645 0.019735161
0.73861414 0.037172087 0.01970382
0.7386651 0.036505535 0.019672481
0.73871613 0.035838984 0.019641142
0.73876709 0.035172425 0.019609801
0.73881811 0.03450587 0.019578461
0.73886907 0.033839319 0.019547122
0.73892009 0.033172768 0.019515783
0.73897105 0.032506209 0.019484442
0.73894697 0.032028969 0.020474046
0.73899788 0.031364005 0.020442782
0.73904872 0.030699035 0.020411517
0.73909962 0.030034073 0.020380251
0.73915046 0.029369101 0.020348987
0.73920137 0.028704129 0.02031772
0.73925221 0.028039167 0.020286456
0.73937905 0.027173784 0.019233722
0.73943001 0.026507217 0.019202381
0.73955721 0.025637064 0.018149393
0.73968464 0.024763733 0.017096287
0.73981231 0.023887241 0.01604303
0.73994023 0.023007546 0.014989593
0.74006838 0.022124702 0.013936038
0.74019676 0.021238675 0.012882304
0.7402485 0.020562602 0.012850517
0.74037725 0.019671811 0.011796588
0.74050623 0.018777845 0.010742481
0.74063545 0.017880715 0.0096882544
0.74076498 0.016980404 0.008633879
0.74081719 0.016297979 0.0086017922
0.74094701 0.015392912 0.0075471634
0.74107713 0.014484674 0.0064924145
0.74112958 0.013799066 0.0064601786
0.74118203 0.013113473 0.0064279437
0.74131262 0.012198877 0.0053728661
0.74136519 0.011511681 0.0053405557
0.74141777 0.0108245 0.0053082458
0.74147034 0.010137319 0.0052759359
0.74152291 0.0094501376 0.0052436264
0.74157548 0.0087629342 0.0052113156
0.74162805 0.0080757607 0.0051790061
0.74168062 0.0073885717 0.0051466958
0.74181229 0.0064596971 0.0040909769
0.74186498 0.0057709203 0.004058592
0.74191767 0.0050821588 0.0040262081
0.74197036 0.004393382 0.0039938232
0.74202305 0.0037046056 0.0039614383
0.74207574 0.0030158437 0.0039290539
0.74212843 0.0023270673 0.0038966693
0.74218112 0.0016382906 0.0038642844
0.74223381 0.00094951404 0.0038318997
0.7422865 0.00026075228 0.0037995155
0.74233919 -0.0004280243 0.0037671307
0.74239188 -0.0011168009 0.003734746
0.74244457 -0.0018055774 0.0037023611
0.74249732 -0.0024943391 0.003669977
0.74255002 -0.0031831157 0.0036375921
0.74260271 -0.0038718923 0.0036052074
0.7426554 -0.0045606541 0.0035728232
0.74270809 -0.0052494309 0.0035404384
0.74276078 -0.0059382073 0.0035080535
0.74281347 -0.0066269836 0.0034756688
0.74286616 -0.0073157456 0.0034432847
0.74291885 -0.008004522 0.0034108998
0.74297154 -0.0086932983 0.0033785149
0.74302423 -0.0093820756 0.0033461303
0.74307692 -0.010070837 0.0033137461
0.74312961 -0.010759613 0.0032813612
0.7431823 -0.01144839 0.0032489763
0.74323499 -0.012137152 0.0032165924
0.74328768 -0.012825929 0.0031842075
0.74325776 -0.013226996 0.0041773953
0.74331033 -0.013914185 0.0041450853
0.7433629 -0.014601358 0.0041127759
0.74341547 -0.015288562 0.0040804651
0.74346805 -0.015975734 0.0040481556
0.74352062 -0.016662924 0.0040158452
0.74365658 -0.017647335 0.0029575152
0.74370927 -0.018336112 0.0029251303
0.74376196 -0.019024888 0.0028927454
0.74381465 -0.01971365 0.0028603615
0.74386734 -0.020402441 0.0028279759
0.74392003 -0.021091202 0.0027955917
0.74405682 -0.022086745 0.0017367086
0.74410963 -0.022777094 0.0017042498
0.74416244 -0.023467459 0.0016717903
0.74429971 -0.024469338 0.00061263872
0.74435264 -0.025161276 0.00058010523
0.70748293 0.1113534 0.44825611
0.70748293 0.1113534 0.44825611
0.70748293 0.1113534 0.44825611
0.70748293 0.1113534 0.44825611
0.70748293 0.1113534 0.44825611
0.70748293 0.1113534 0.44825611
0.70748293 0.1113534 0.44825611
0.70748293 0.1113534 0.44825611
0.70748293 0.1113534 0.44825611
0.70748293 0.1113534 0.44825611
0.70748293 0.1113534 0.44825611
0.70748293 0.1113534 0.44825611
0.70748293 0.1113534 0.44825611
0.70748293 0.1113534 0.44825611
0.70748293 0.1113534 0.44825611
0.70748293 0.1113534 0.44825611
0.70748293 0.1113534 0.44825611
0.70748293 0.1113534 0.44825611
0.70748293 0.1113534 0.44825611
0.70748293 0.1113534 0.44825611
0.70748293 0.1113534 0.44825611
0.70748293 0.1113534 0.44825611
0.70748293 0.1113534 0.44825611
0.70748293 0.1113534 0.44825611
0.70748293 0.1113534 0.44825611
0.70748293 0.1113534 0.44825611
0.70748293 0.1113534 0.44825611
0.70748293 0.1113534 0.44825611
0.70748293 0.1113534 0.44825611
0.70748293 0.1113534 0.44825611
0.70748293 0.1113534 0.44825611
0.70748293 0.1113534 0.44825611
0.70748293 0.1113534 0.44825611
0.70748293 0.1113534 0.44825611
0.70748293 0.1113534 0.44825611
0.70748293 0.1113534 0.44825611
0.70748293 0.1113534 0.44825611
0.70748293 0.1113534 0.44825611
0.70748293 0.1113534 0.44825611
0.70748293 0.1113534 0.44825611
0.70748293 0.1113534 0.44825611
0.70748293 0.1113534 0.44825611
0.70748293 0.1113534 0.44825611
0.70748293 0.1113534 0.44825611
0.70748293 0.1113534 0.44825611
0.70748293 0.1113534 0.44825611
0.70748293 0.1113534 0.44825611
0.70748293 0.1113534 0.44825611
0.70748293 0.1113534 0.44825611
0.70748293 0.1113534 0.44825611
0.70748293 0.1113534 0.44825611
0.70748293 0.1113534 0.44825611
0.70748293 0.1113534 0.44825611
0.70748293 0.1113534 0.44825611
0.70748293 0.1113534 0.44825611
0.70748293 0.1113534 0.44825611
0.70748293 0.1113534 0.44825611
0.70748293 0.1113534 0.44825611
0.70748293 0.1113534 0.44825611
0.70748293 0.1113534 0.44825611
0.70748293 0.1113534 0.44825611
0.70748293 0.1113534 0.44825611
0.70748293 0.1113534 0.44825611
0.70748293 0.1113534 0.44825611
0.70748293 0.1113534 0.44825611
0.70748293 0.1113534 0.44825611
0.70748293 0.1113534 0.44825611
0.70748293 0.1113534 0.44825611
0.70748293 0.1113534 0.44825611
0.70748293 0.1113534 0.44825611
0.70748293 0.1113534 0.44825611
0.70748293 0.1113534 0.44825611
0.70748293 0.1113534 0.44825611
0.70748293 0.1113534 0.44825611
0.70748293 0.1113534 0.44825611
0.70748293 0.1113534 0.44825611
0.70748293 0.1113534 0.44825611
0.70748293 0.1113534 0.44825611
0.70748293 0.1113534 0.44825611
0.70748293 0.1113534 0.44825611
0.70748293 0.1113534 0.44825611
0.70748293 0.1113534 0.44825611
0.70748293 0.1113534 0.44825611
0.70748293 0.1113534 0.44825611
0.73470825 0.095695958 0.0012734716
0.73476177 0.09499608 0.0012405647
0.7348153 0.094296195 0.0012076577
0.73486888 0.093596317 0.0011747509
0.73492241 0.092896432 0.0011418439
0.73497593 0.092196554 0.0011089368
0.73502952 0.091496669 0.0010760297
0.73508304 0.090796784 0.0010431228
0.73513657 0.090096906 0.0010102158
0.73519015 0.089397021 0.00097730884
0.73524368 0.088697143 0.00094440195
0.7352972 0.087997265 0.00091149512
0.73535079 0.08729738 0.00087858818
0.73540431 0.086597495 0.00084568124
0.73545784 0.08589761 0.00081277412
0.73551142 0.085197732 0.00077986711
0.73556495 0.084497847 0.00074696017
0.73561847 0.083797969 0.00071405323
0.7356081 0.083162159 0.0016960417
0.73566151 0.082463861 0.0016632094
0.73571497 0.08176557 0.0016303771
0.73570406 0.081136107 0.0026126953
0.73575741 0.080439396 0.0025799375
0.73574615 0.079814695 0.003562449
0.73579931 0.079119578 0.0035297661
0.73585254 0.078424454 0.0034970827
0.73590571 0.077729329 0.0034643996
0.73595887 0.077034213 0.0034317167
0.73594695 0.076419033 0.0044147056
0.736 0.075725503 0.0043820972
0.73605305 0.075031966 0.0043494888
0.7361716 0.07425373 0.0033009844
0.73622477 0.073558606 0.003268301
0.73627794 0.072863489 0.0032356181
0.73633116 0.072168365 0.003202935
0.73638433 0.071473248 0.0031702518
0.7364375 0.070778124 0.0031375687
0.73642445 0.070177227 0.0041212291
0.73647749 0.069483697 0.0040886211
0.73653054 0.06879016 0.0040560123
0.73658365 0.06809663 0.0040234039
0.73656994 0.067503668 0.0050074076
0.73662293 0.066811718 0.0049748737
0.73667586 0.066119768 0.0049423398
0.73672879 0.065427825 0.004909806
0.73671454 0.064842798 0.0058941832
0.73676735 0.064152434 0.0058617238
0.73675269 0.063572183 0.0068463553
0.73680538 0.062883407 0.0068139704
0.73679042 0.062307902 0.0077987956
0.73684299 0.061620712 0.0077664852
0.73682761 0.061049972 0.0087515637
0.73688006 0.060364377 0.0087193288
0.73686433 0.05979839 0.0097046001
0.73691666 0.059114382 0.0096724397
0.73690057 0.058553163 0.010657967
0.7368843 0.057995118 0.011643613
0.73693633 0.057314277 0.0116116
0.73691964 0.056760989 0.01259747
0.73697162 0.056081742 0.012565534
0.73695457 0.055533215 0.013551656
0.73693728 0.05498787 0.014537899
0.73698902 0.05431179 0.014506111
0.7370407 0.05363572 0.014474324
0.73702294 0.053096715 0.015460895
0.73707455 0.052422225 0.015429182
0.73712611 0.051747732 0.015397469
0.73710787 0.051215075 0.016384307
0.73715937 0.050542179 0.016352668
0.73721081 0.049869277 0.016321031
0.73726231 0.049196374 0.016289392
0.73731381 0.048523471 0.016257754
0.73729479 0.048000347 0.017245071
0.73734617 0.047329023 0.017213507
0.73739749 0.046657708 0.017181944
0.73744887 0.045986399 0.01715038
0.73750025 0.045315076 0.017118815
0.73748052 0.04480147 0.01810655
0.73753172 0.044131741 0.018075062
0.73758298 0.043462012 0.018043572
0.73763424 0.042792287 0.018012084
0.73768544 0.04212255 0.017980594
0.7377367 0.041452833 0.017949104
0.7377879 0.040783096 0.017917616
0.73783916 0.040113375 0.017886126
0.73789042 0.039443642 0.017854637
0.73794162 0.038773913 0.017823149
0.73799288 0.038104184 0.017791659
0.73804408 0.037434459 0.017760169
0.73809534 0.03676473 0.017728681
0.7381466 0.036095005 0.017697191
0.73812503 0.035605192 0.018686045
0.73817617 0.034937054 0.018654631
0.73822725 0.034268916 0.018623216
0.73827839 0.033600766 0.018591801
0.73832947 0.032932635 0.018560387
0.73838061 0.03226449 0.018528972
0.73843175 0.031596348 0.018497558
0.73848283 0.030928209 0.018466143
0.73846018 0.030452691 0.019455699
0.7385112 0.02978614 0.019424358
0.73856217 0.029119581 0.019393019
0.73868728 0.028255636 0.018340485
0.73873842 0.027587503 0.01830907
0.73886389 0.026718808 0.017256342
0.73891515 0.026049074 0.017224854
0.73904097 0.025175624 0.016171901
0.73916703 0.02429899 0.015118769
0.7392934 0.023419185 0.01406552
0.73941994 0.022536192 0.01301209
0.73954678 0.021650044 0.011958541
0.73967385 0.020760721 0.010904813
0.73980111 0.019868221 0.0098509667
0.7398532 0.019187376 0.0098189544
0.73998088 0.018290119 0.0087648835
0.74010879 0.017389681 0.0077106329
0.74016112 0.01670566 0.0076784715
0.74028939 0.015800463 0.0066240272
0.74034184 0.015114871 0.0065917922
0.74039429 0.014429278 0.0065595573
0.74052304 0.013517714 0.0055047837
0.74057561 0.012830533 0.0054724743
0.74062818 0.012143352 0.0054401644
0.74068075 0.011456156 0.005407854
0.74073333 0.010768975 0.0053755441
0.7407859 0.010081794 0.0053432342
0.74083847 0.0093946131 0.0053109243
0.74089104 0.0087074097 0.0052786134
0.74102092 0.0077815973 0.0042232
0.74107361 0.0070928205 0.0041908151
0.7411263 0.0064040441 0.0041584303
0.74117899 0.0057152677 0.0041260459
0.74123168 0.0050265058 0.0040936614
0.74128437 0.0043377294 0.0040612766
0.74133706 0.0036489526 0.0040288917
0.74138975 0.0029601909 0.0039965077
0.74144244 0.0022714143 0.0039641229
0.74157351 0.0013296939 0.0029079311
0.74162632 0.00063934422 0.0028754722
0.74167913 -5.1005587e-05 0.0028430135
0.74173194 -0.0007413702 0.0028105541
0.74178475 -0.0014317349 0.0027780945
0.74183756 -0.0021220846 0.0027456358
0.74189043 -0.0028124491 0.0027131762
0.74186397 -0.0032387688 0.0037050457
0.74191672 -0.0039275452 0.003672661
0.74196941 -0.0046163071 0.0036402768
0.7420221 -0.0053050835 0.003607892
0.74207479 -0.0059938603 0.0035755071
0.74212748 -0.0066826367 0.0035431224
0.74218017 -0.0073713986 0.0035107383
0.74223286 -0.008060175 0.0034783534
0.74228555 -0.0087489514 0.0034459687
0.74233824 -0.0094377287 0.0034135839
0.74239093 -0.01012649 0.0033811997
0.74244362 -0.010815267 0.0033488148
0.74249631 -0.011504043 0.0033164301
0.742549 -0.012192805 0.003284046
0.74260169 -0.012881582 0.0032516611
0.74265438 -0.013570358 0.0032192762
0.74270707 -0.014259134 0.0031868916
0.74275976 -0.014947897 0.0031545074
0.74273109 -0.015344086 0.0041477629
0.7428652 -0.01632545 0.0030897376
0.7429179 -0.017014226 0.003057353
0.74297059 -0.017702987 0.0030249688
0.74302328 -0.018391764 0.0029925839
0.74307597 -0.01908054 0.002960199
0.74312866 -0.019769304 0.0029278151
0.74318135 -0.020458095 0.0028954295
0.74331641 -0.021452161 0.0018367764
0.74336922 -0.022142526 0.001804317
0.74342203 -0.022832874 0.0017718582
0.74355757 -0.02383331 0.0007129361
0.74361056 -0.024525248 0.00068040262
0.70748293 0.1113534 0.44825611
0.70748293 0.1113534 0.44825611
0.70748293 0.1113534 0.44825611
0.70748293 0.1113534 0.44825611
0.70748293 0.1113534 0.44825611
0.70748293 0.1113534 0.44825611
0.70748293 0.1113534 0.44825611
0.70748293 0.1113534 0.44825611
0.70748293 0.1113534 0.44825611
0.70748293 0.1113534 0.44825611
0.70748293 0.1113534 0.44825611
0.70748293 0.1113534 0.44825611
0.70748293 0.1113534 0.44825611
0.70748293 0.1113534 0.44825611
0.70748293 0.1113534 0.44825611
0.70748293 0.1113534 0.44825611
0.70748293 0.1113534 0.44825611
0.70748293 0.1113534 0.44825611
0.70748293 0.1113534 0.44825611
0.70748293 0.1113534 0.44825611
0.70748293 0.1113534 0.44825611
0.70748293 0.1113534 0.44825611
0.70748293 0.1113534 0.44825611
0.70748293 0.1113534 0.44825611
0.70748293 0.1113534 0.44825611
0.70748293 0.1113534 0.44825611
0.70748293 0.1113534 0.44825611
0.70748293 0.1113534 0.44825611
0.70748293 0.1113534 0.44825611
0.70748293 0.1113534 0.44825611
0.70748293 0.1113534 0.44825611
0.70748293 0.1113534 0.44825611
0.70748293 0.1113534 0.44825611
0.70748293 0.1113534 0.44825611
0.70748293 0.1113534 0.44825611
0.70748293 0.1113534 0.44825611
0.70748293 0.1113534 0.44825611
0.70748293 0.1113534 0.44825611
0.70748293 0.1113534 0.44825611
0.70748293 0.1113534 0.44825611
0.70748293 0.1113534 0.44825611
0.70748293 0.1113534 0.44825611
0.70748293 0.1113534 0.44825611
0.70748293 0.1113534 0.44825611
0.70748293 0.1113534 0.44825611
0.70748293 0.1113534 0.44825611
0.70748293 0.1113534 0.44825611
0.70748293 0.1113534 0.44825611
0.70748293 0.1113534 0.44825611
0.70748293 0.1113534 0.44825611
0.70748293 0.1113534 0.44825611
0.70748293 0.1113534 0.44825611
0.70748293 0.1113534 0.44825611
0.70748293 0.1113534 0.44825611
0.70748293 0.1113534 0.44825611
0.70748293 0.1113534 0.44825611
0.70748293 0.1113534 0.44825611
0.70748293 0.1113534 0.44825611
0.70748293 0.1113534 0.44825611
0.70748293 0.1113534 0.44825611
0.70748293 0.1113534 0.44825611
0.70748293 0.1113534 0.44825611
0.70748293 0.1113534 0.44825611
0.70748293 0.1113534 0.44825611
0.70748293 0.1113534 0.44825611
0.70748293 0.1113534 0.44825611
0.70748293 0.1113534 0.44825611
0.70748293 0.1113534 0.44825611
0.70748293 0.1113534 0.44825611
0.70748293 0.1113534 0.44825611
0.70748293 0.1113534 0.44825611
0.70748293 0.1113534 0.44825611
0.70748293 0.1113534 0.44825611
0.70748293 0.1113534 0.44825611
0.70748293 0.1113534 0.44825611
0.70748293 0.1113534 0.44825611
0.70748293 0.1113534 0.44825611
0.70748293 0.1113534 0.44825611
0.70748293 0.1113534 0.44825611
0.70748293 0.1113534 0.44825611
0.70748293 0.1113534 0.44825611
0.70748293 0.1113534 0.44825611
0.73401117 0.095639408 0.0013420125
0.73406476 0.09493953 0.0013091055
0.73411828 0.094239645 0.0012761985
0.73417181 0.093539767 0.0012432917
0.73422533 0.092839882 0.0012103847
0.73427892 0.092140004 0.0011774778
0.73433244 0.091440119 0.0011445705
0.73438597 0.090740234 0.0011116636
0.73443955 0.090040356 0.0010787566
0.73449308 0.089340471 0.0010458498
0.7345466 0.088640593 0.0010129428
0.73460019 0.087940715 0.00098003598
0.73465371 0.08724083 0.00094712904
0.73470724 0.086540945 0.00091422204
0.73476082 0.08584106 0.00088131492
0.73481435 0.085141182 0.00084840797
0.73486787 0.084441297 0.00081550103
0.73485923 0.083804026 0.00179726
0.73491263 0.083105735 0.0017644278
0.73496604 0.082407437 0.0017315954
0.73501951 0.081709146 0.0016987631
0.73501021 0.081079811 0.0026809252
0.73506349 0.080383107 0.0026481673
0.73511678 0.079686396 0.0026154094
0.735107 0.079063416 0.0035978404
0.73516023 0.078368284 0.0035651571
0.7352134 0.077673167 0.0035324739
0.73526657 0.07697805 0.003499791
0.73531973 0.076282926 0.0034671077
0.73537296 0.075587802 0.0034344248
0.73542613 0.074892685 0.0034017416
0.7354793 0.074197568 0.0033690585
0.73553246 0.073502444 0.0033363753
0.73558563 0.072807327 0.0033036922
0.73563886 0.072112203 0.0032710091
0.73569202 0.071417078 0.0032383259
0.73574519 0.070721962 0.0032056428
0.73579836 0.070026837 0.0031729597
0.7357868 0.069427662 0.0041565406
0.73583984 0.068734124 0.0041239318
0.73589289 0.068040594 0.0040913234
0.73594594 0.067347057 0.0040587145
0.73593378 0.066755809 0.0050426377
0.73598671 0.066063859 0.0050101038
0.73603964 0.065371916 0.0049775699
0.73609257 0.064679973 0.004945036
0.73607975 0.064096659 0.0059293322
0.73613256 0.063406296 0.0058968728
0.73611939 0.062827751 0.0068814233
0.73617208 0.062138982 0.0068490389
0.73622477 0.061450206 0.0068166545
0.73621112 0.060878001 0.0078014727
0.73626369 0.060190819 0.0077691628
0.73624969 0.059623383 0.0087542357
0.73630214 0.058937781 0.0087219998
0.73628777 0.058375102 0.0097072665
0.73634011 0.05769109 0.0096751051
0.73632532 0.057133175 0.010660625
0.73631036 0.056578428 0.011646264
0.73636246 0.055897593 0.011614253
0.73641455 0.055216748 0.011582241
0.73639905 0.054668356 0.012568179
0.73638332 0.054123133 0.013554296
0.73643517 0.053445473 0.013522434
0.73648703 0.052767806 0.013490572
0.73647082 0.052228935 0.014476958
0.73652256 0.051552862 0.01444517
0.73657429 0.050876781 0.014413382
0.73662597 0.050200708 0.014381595
0.73660916 0.049669769 0.015368383
0.73666078 0.048995283 0.015336671
0.7367124 0.048320793 0.015304958
0.73676401 0.047646306 0.015273245
0.73674655 0.047123298 0.016260376
0.73679805 0.046450388 0.016228737
0.73684955 0.045777492 0.016197098
0.73690099 0.045104589 0.016165461
0.73695248 0.044431683 0.016133823
0.73700398 0.04375878 0.016102184
0.73698568 0.043246895 0.017089868
0.73703706 0.042575579 0.017058304
0.73708844 0.041904256 0.017026739
0.73713976 0.041232947 0.016995177
0.73719114 0.040561631 0.016963612
0.73724252 0.039890319 0.016932048
0.73729384 0.039219003 0.016900485
0.73734522 0.038547687 0.016868921
0.7373966 0.037876371 0.016837357
0.73744792 0.037205055 0.016805792
0.7374993 0.036533739 0.01677423
0.73755062 0.035862423 0.016742665
0.737602 0.035191108 0.016711101
0.73765337 0.034519792 0.016679538
0.73763329 0.034031708 0.017668312
0.73768449 0.033361971 0.017636823
0.73773575 0.03269225 0.017605333
0.73778695 0.032022517 0.017573845
0.73783821 0.031352788 0.017542355
0.73788947 0.030683061 0.017510865
0.73794067 0.030013334 0.017479377
0.73806423 0.029149275 0.016427027
0.73811561 0.028477959 0.016395463
0.73816693 0.027806636 0.0163639
0.73829097 0.026936226 0.015311223
0.73841524 0.026062647 0.014258427
0.7384668 0.025388148 0.014226713
0.73859143 0.024509799 0.013173662
0.7387163 0.023628285 0.012120494
0.73884141 0.022743592 0.011067145
0.73896676 0.021855712 0.010013675
0.73901886 0.021174876 0.0099816639
0.73914456 0.020282254 0.008927973
0.73927057 0.01938645 0.0078741023
0.7393229 0.018702431 0.007841941
0.7394492 0.01780187 0.0067878766
0.73950166 0.017116277 0.0067556412
0.73955411 0.016430669 0.0067234053
0.73968089 0.015523748 0.0056690113
0.73973346 0.014836567 0.0056367018
0.73978609 0.014149386 0.0056043919
0.73983866 0.013462191 0.0055720815
0.73989123 0.012775009 0.0055397716
0.7399438 0.012087828 0.0055074617
0.73999637 0.011400633 0.0054751514
0.74004894 0.010713451 0.0054428414
0.74010152 0.01002627 0.0054105315
0.74022949 0.0091034984 0.0043554227
0.74028224 0.0084147071 0.0043230373
0.74033493 0.0077259452 0.0042906529
0.74038762 0.0070371684 0.004258268
0.74044031 0.006348392 0.0042258832
0.740493 0.0056596152 0.0041934988
0.74054569 0.0049708537 0.0041611143
0.74059838 0.0042820768 0.0041287295
0.74072748 0.0033450073 0.0030729179
0.74078029 0.0026546426 0.0030404585
0.7408331 0.0019642927 0.0030079996
0.74088591 0.0012739133 0.0029755395
0.74093878 0.00058356358 0.0029430806
0.74099159 -0.0001067862 0.0029106219
0.7410444 -0.00079715083 0.0028781625
0.74109721 -0.0014875154 0.0028457029
0.74115002 -0.0021778652 0.0028132442
0.74120283 -0.0028682298 0.0027807846
0.74117798 -0.0032944209 0.0037724986
0.74123073 -0.0039831977 0.0037401139
0.74128342 -0.0046719592 0.0037077297
0.74133611 -0.005360736 0.0036753449
0.7413888 -0.0060495124 0.0036429602
0.74144149 -0.0067382893 0.0036105753
0.74149418 -0.0074270507 0.0035781912
0.74154687 -0.0081158271 0.0035458063
0.74159956 -0.0088046044 0.0035134216
0.74165225 -0.0094933808 0.0034810368
0.74170494 -0.010182142 0.0034486526
0.74175763 -0.010870919 0.0034162677
0.74181032 -0.011559696 0.003383883
0.74186301 -0.012248457 0.0033514989
0.7419157 -0.012937234 0.003319114
0.74196839 -0.01362601 0.0032867291
0.74202108 -0.014314787 0.0032543445
0.74207377 -0.015003549 0.0032219603
0.74212646 -0.01569234 0.0031895747
0.74217921 -0.016381102 0.0031571905
0.74223191 -0.017069878 0.0031248059
0.7422846 -0.01775864 0.0030924217
0.74233729 -0.018447416 0.0030600368
0.74238998 -0.019136194 0.0030276519
0.74244267 -0.019824956 0.002995268
0.74249536 -0.020513747 0.0029628824
0.74262881 -0.021507941 0.0019043848
0.74268168 -0.022198306 0.0018719254
0.74281549 -0.02319725 0.00081323489
0.74286842 -0.023889219 0.00078070007
0.70748293 0.1113534 0.44825611
0.70748293 0.1113534 0.44825611
0.70748293 0.1113534 0.44825611
0.70748293 0.1113534 0.44825611
0.70748293 0.1113534 0.44825611
0.70748293 0.1113534 0.44825611
0.70748293 0.1113534 0.44825611
0.70748293 0.1113534 0.44825611
0.70748293 0.1113534 0.44825611
0.70748293 0.1113534 0.44825611
0.70748293 0.1113534 0.44825611
0.70748293 0.1113534 0.44825611
0.70748293 0.1113534 0.44825611
0.70748293 0.1113534 0.44825611
0.70748293 0.1113534 0.44825611
0.70748293 0.1113534 0.44825611
0.70748293 0.1113534 0.44825611
0.70748293 0.1113534 0.44825611
0.70748293 0.1113534 0.44825611
0.70748293 0.1113534 0.44825611
0.70748293 0.1113534 0.44825611
0.70748293 0.1113534 0.44825611
0.70748293 0.1113534 0.44825611
0.70748293 0.1113534 0.44825611
0.70748293 0.1113534 0.44825611
0.70748293 0.1113534 0.44825611
0.70748293 0.1113534 0.44825611
0.70748293 0.1113534 0.44825611
0.70748293 0.1113534 0.44825611
0.70748293 0.1113534 0.44825611
0.70748293 0.1113534 0.44825611
0.70748293 0.1113534 0.44825611
0.70748293 0.1113534 0.44825611
0.70748293 0.1113534 0.44825611
0.70748293 0.1113534 0.44825611
0.70748293 0.1113534 0.44825611
0.70748293 0.1113534 0.44825611
0.70748293 0.1113534 0.44825611
0.70748293 0.1113534 0.44825611
0.70748293 0.1113534 0.44825611
0.70748293 0.1113534 0.44825611
0.70748293 0.1113534 0.44825611
0.70748293 0.1113534 0.44825611
0.70748293 0.1113534 0.44825611
0.70748293 0.1113534 0.44825611
0.70748293 0.1113534 0.44825611
0.70748293 0.1113534 0.44825611
0.70748293 0.1113534 0.44825611
0.70748293 0.1113534 0.44825611
0.70748293 0.1113534 0.44825611
0.70748293 0.1113534 0.44825611
0.70748293 0.1113534 0.44825611
0.70748293 0.1113534 0.44825611
0.70748293 0.1113534 0.44825611
0.70748293 0.1113534 0.44825611
0.70748293 0.1113534 0.44825611
0.70748293 0.1113534 0.44825611
0.70748293 0.1113534 0.44825611
0.70748293 0.1113534 0.44825611
0.70748293 0.1113534 0.44825611
0.70748293 0.1113534 0.44825611
0.70748293 0.1113534 0.44825611
0.70748293 0.1113534 0.44825611
0.70748293 0.1113534 0.44825611
0.70748293 0.1113534 0.44825611
0.70748293 0.1113534 0.44825611
0.70748293 0.1113534 0.44825611
0.70748293 0.1113534 0.44825611
0.70748293 0.1113534 0.44825611
0.70748293 0.1113534 0.44825611
0.70748293 0.1113534 0.44825611
0.70748293 0.1113534 0.44825611
0.70748293 0.1113534 0.44825611
0.70748293 0.1113534 0.44825611
0.70748293 0.1113534 0.44825611
0.70748293 0.1113534 0.44825611
0.70748293 0.1113534 0.44825611
0.70748293 0.1113534 0.44825611
0.70748293 0.1113534 0.44825611
0.7332654 0.096950032 0.00046324462
0.73331904 0.096248567 0.00043026317
0.73331416 0.095582858 0.0014105533
0.73336768 0.09488298 0.0013776463
0.73342121 0.094183095 0.0013447395
0.73347479 0.093483217 0.0013118325
0.73352832 0.092783332 0.0012789255
0.73358184 0.092083454 0.0012460186
0.73363537 0.091383569 0.0012131114
0.73368895 0.090683684 0.0011802044
0.73374248 0.089983806 0.0011472974
0.733796 0.089283921 0.0011143906
0.73384959 0.088584043 0.0010814836
0.73390311 0.087884165 0.0010485768
0.73395663 0.08718428 0.0010156698
0.73401022 0.086484395 0.0009827629
0.73406374 0.08578451 0.00094985572
0.73405689 0.085144199 0.0019313107
0.7341103 0.084445901 0.0018984785
0.73416376 0.083747603 0.001865646
0.73421717 0.083049312 0.0018328137
0.73427057 0.082351021 0.0017999815
0.73432398 0.081652723 0.0017671492
0.73437744 0.080954432 0.0017343169
0.73436958 0.08032681 0.0027163979
0.73442292 0.079630099 0.00268364
0.73447621 0.078933395 0.0026508824
0.7345295 0.078236684 0.0026181245
0.73458278 0.07753998 0.0025853668
0.73457426 0.07692188 0.0035678667
0.73462743 0.076226756 0.0035351834
0.73468059 0.075531639 0.0035025005
0.73473376 0.074836515 0.0034698173
0.73478699 0.074141398 0.0034371342
0.73484015 0.073446274 0.0034044511
0.73489332 0.072751157 0.0033717679
0.73494649 0.072056033 0.0033390848
0.73499966 0.071360916 0.0033064017
0.73505288 0.070665792 0.0032737185
0.73510605 0.069970675 0.0032410354
0.73509604 0.069371626 0.0042244596
0.73514909 0.068678088 0.0041918512
0.73520213 0.067984559 0.0041592428
0.73525524 0.067291021 0.004126634
0.73530829 0.066597484 0.0040940256
0.7352975 0.066007949 0.0050778682
0.73535049 0.065316007 0.0050453348
0.73540342 0.064624064 0.0050128009
0.73545635 0.063932113 0.004980267
0.73544502 0.063350521 0.0059644822
0.73549783 0.062660158 0.0059320228
0.73555064 0.061969802 0.0058995639
0.73553878 0.061394554 0.0068841078
0.73559147 0.060705777 0.006851723
0.73564416 0.060017008 0.0068193385
0.73563188 0.059448104 0.0078041507
0.73568445 0.058760926 0.0077718408
0.73567176 0.058196783 0.0087569067
0.73572421 0.057511192 0.0087246718
0.73571116 0.05695181 0.0097099319
0.73576349 0.056267798 0.0096777705
0.73575008 0.055713184 0.010663285
0.73580229 0.055030759 0.010631199
0.73585451 0.054348335 0.010599113
0.73584062 0.053800061 0.011584895
0.73589271 0.053119235 0.011552884
0.73587847 0.052575719 0.012538889
0.73593038 0.051896468 0.012506953
0.73598236 0.051217221 0.012475016
0.73596764 0.050680064 0.01346135
0.73601949 0.050002404 0.013429489
0.73607129 0.049324736 0.013397627
0.73605609 0.048793931 0.01438423
0.73610783 0.04811785 0.014352442
0.73615956 0.047441777 0.014320654
0.73621124 0.046765696 0.014288866
0.73619545 0.046242818 0.015275872
0.736247 0.045568332 0.01524416
0.73629862 0.044893842 0.015212446
0.73635024 0.044219356 0.015180734
0.7364018 0.043544866 0.015149021
0.73645341 0.04287038 0.015117308
0.73650503 0.04219589 0.015085595
0.73655665 0.041521396 0.015053881
0.73660821 0.040846907 0.015022168
0.73665982 0.040172413 0.014990455
0.73671144 0.039497931 0.014958742
0.736763 0.038823437 0.014927029
0.73681462 0.038148955 0.014895316
0.73686624 0.037474461 0.014863603
0.73691785 0.036799978 0.01483189
0.73690003 0.036302485 0.01582006
0.73695153 0.035629582 0.015788421
0.73700303 0.034956686 0.015756784
0.73705447 0.03428378 0.015725145
0.73710597 0.033610877 0.015693506
0.73715746 0.032937974 0.015661867
0.7372089 0.032265078 0.01563023
0.7372604 0.031592175 0.015598591
0.7373119 0.030919263 0.015566953
0.7373634 0.030246368 0.015535314
0.73748547 0.029380592 0.014483047
0.73753703 0.0287061 0.014451333
0.73765951 0.027835555 0.013398811
0.73771119 0.027159475 0.013367023
0.73783404 0.026284179 0.012314308
0.73788583 0.025606519 0.012282446
0.73800904 0.024726445 0.011229476
0.73813242 0.023843216 0.010176388
0.73818451 0.02316238 0.010144376
0.73830831 0.022274386 0.0090910634
0.73843229 0.021383205 0.0080375709
0.73848462 0.020699199 0.0080054104
0.73860902 0.019803267 0.0069517251
0.73866147 0.019117674 0.0069194902
0.73871392 0.018432066 0.0068872543
0.73883879 0.017529782 0.0058332398
0.73889136 0.016842602 0.0058009299
0.73894393 0.016155405 0.0057686195
0.73899651 0.015468224 0.0057363096
0.73904908 0.014781043 0.0057039997
0.73910165 0.014093862 0.0056716898
0.73915422 0.013406666 0.0056393794
0.73920679 0.012719485 0.0056070695
0.73933274 0.011802929 0.0045524146
0.73938543 0.011114146 0.0045200293
0.73943812 0.010425376 0.0044876449
0.73949081 0.0097366069 0.0044552605
0.7395435 0.0090478454 0.0044228761
0.73959619 0.0083590541 0.0043904907
0.73964888 0.0076702922 0.0043581068
0.73970163 0.0069815153 0.0043257219
0.73975432 0.006292739 0.004293337
0.73988146 0.0053603048 0.003237905
0.73993427 0.0046699406 0.0032054454
0.73998708 0.0039795907 0.0031729867
