# .PCD v0.7 - Point Cloud Data file format
VERSION 0.7
FIELDS x y z
SIZE 4 4 4
TYPE F F F
COUNT 1 1 1
WIDTH 1338
HEIGHT 1
VIEWPOINT 0 0 0 1 0 0 0
POINTS 1338
DATA ascii
0.98806489 0.15745243 -0.0036459127
0.98810792 0.15672077 -0.0036372973
0.98815095 0.15598913 -0.0036286821
0.98762071 0.15504676 -0.0027799716
0.98766369 0.15431669 -0.002771375
0.9877066 0.15358663 -0.0027627782
0.98774958 0.15285656 -0.0027541816
0.98721886 0.15192215 -0.0019055678
0.98726171 0.15119368 -0.0018969898
0.98730457 0.15046521 -0.0018884121
0.98734742 0.14973673 -0.001879834
0.98739028 0.14900824 -0.0018712562
0.98743314 0.14827977 -0.0018626783
0.98747599 0.1475513 -0.0018541003
0.98809314 0.14701603 -0.0026854086
0.98813611 0.14628597 -0.002676812
0.98817903 0.1455559 -0.0026682154
0.988222 0.14482583 -0.0026596189
0.98883963 0.14428261 -0.0034908364
0.98888266 0.14355095 -0.0034822209
0.9889257 0.14281929 -0.0034736055
0.98954374 0.14226972 -0.0043047727
0.98958683 0.14153646 -0.0042961384
0.98962998 0.14080322 -0.0042875046
0.98967314 0.14006996 -0.0042788703
0.98971623 0.13933672 -0.0042702365
0.98975939 0.13860346 -0.0042616022
0.98980254 0.13787022 -0.0042529684
0.98927003 0.13696602 -0.0034046827
0.98931307 0.13623437 -0.0033960673
0.9893561 0.13550271 -0.0033874521
0.98939914 0.13477105 -0.0033788364
0.98944217 0.1340394 -0.0033702212
0.98890913 0.13314475 -0.0025220725
0.9889521 0.13241468 -0.0025134759
0.98899502 0.13168462 -0.0025048794
0.98903799 0.13095455 -0.0024962828
0.98850447 0.13006787 -0.0016482307
0.98854733 0.12933938 -0.0016396528
0.98859018 0.12861091 -0.0016310749
0.98805624 0.12773058 -0.00078307034
0.98809904 0.1270037 -0.00077451119
0.98814178 0.12627681 -0.00076595199
0.98818457 0.12554993 -0.00075739279
0.98822731 0.12482304 -0.00074883364
0.98827004 0.12409616 -0.0007402745
0.98773551 0.12322696 0.00010757444
0.98777819 0.12250166 0.00011611493
0.98782086 0.12177636 0.00012465537
0.98786354 0.12105107 0.0001331958
0.98848385 0.12046172 -0.00069747859
0.98852664 0.11973484 -0.00068891945
0.98856938 0.11900795 -0.0006803603
0.98861217 0.11828107 -0.0006718011
0.98865491 0.11755418 -0.0006632419
0.98869765 0.11682729 -0.00065468275
0.98874044 0.11610041 -0.00064612355
0.98878318 0.11537352 -0.0006375644
0.98940438 0.11476986 -0.0014680948
0.98944724 0.11404139 -0.0014595168
0.98949009 0.11331291 -0.001450939
0.98953295 0.11258443 -0.001442361
0.9895758 0.11185595 -0.0014337832
0.99019754 0.11124275 -0.0022641737
0.99024051 0.11051268 -0.0022555771
0.99028343 0.10978261 -0.0022469806
0.9903264 0.10905255 -0.0022383837
0.99036932 0.10832249 -0.0022297872
0.99041229 0.10759242 -0.0022211906
0.99103469 0.10696808 -0.003051453
0.99107772 0.10623641 -0.0030428376
0.99112076 0.10550476 -0.0030342222
0.99116379 0.1047731 -0.0030256067
0.99178666 0.10414081 -0.0038558
0.99182981 0.10340756 -0.003847166
0.99187291 0.10267431 -0.0038385319
0.99191606 0.10194106 -0.0038298978
0.99253941 0.10130082 -0.0046599731
0.99258262 0.10056598 -0.0046513202
0.99262583 0.099831142 -0.0046426672
0.99266911 0.099096298 -0.0046340143
0.99271232 0.098361462 -0.0046253614
0.99275553 0.097626626 -0.004616709
0.99279875 0.096891783 -0.004608056
0.99284202 0.096156947 -0.0045994031
0.99288523 0.095422111 -0.0045907502
0.99292845 0.094687268 -0.0045820978
0.99297166 0.093952432 -0.0045734448
0.99301487 0.093217596 -0.0045647919
0.99247682 0.092408843 -0.0037176546
0.99251992 0.091675594 -0.0037090206
0.99256307 0.090942346 -0.0037003865
0.9920246 0.090139955 -0.0028532997
0.99206764 0.089408293 -0.0028446843
0.99211067 0.088676639 -0.0028360689
0.9921537 0.087944977 -0.0028274537
0.99161476 0.087150536 -0.0019804849
0.99223977 0.086481661 -0.0028102228
0.99228281 0.085750006 -0.0028016076
0.9923259 0.085018352 -0.0027929922
0.99236894 0.08428669 -0.0027843767
0.99299443 0.083609864 -0.0036140457
0.9936201 0.082929857 -0.0044436525
0.99366331 0.082195014 -0.0044349995
0.99428928 0.081510238 -0.0052645719
0.99433261 0.080773808 -0.0052559003
1.0013506 -0.038527716 -0.0038511099
1.0007958 -0.039053343 -0.0030072848
1.0002409 -0.039575804 -0.0021635187
0.99908751 -0.039881099 -0.00048467124
0.99853212 -0.040395603 0.00035899822
0.99797648 -0.040906921 0.0012026576
0.99742073 -0.041415062 0.0020462552
0.99746341 -0.042140361 0.0020547956
0.99750608 -0.042865645 0.0020633359
0.9975487 -0.043590944 0.0020718763
0.99759138 -0.044316243 0.002080417
0.99823308 -0.045268234 0.0012540127
0.9988749 -0.046223413 0.00042762145
0.99891776 -0.046951894 0.00043619939
0.99955994 -0.047911841 -0.00039010824
0.99960285 -0.048641901 -0.00038151169
1.0002453 -0.049606618 -0.0012077661
1.0002884 -0.050338279 -0.0011991507
1.000931 -0.051307779 -0.0020253733
1.0003744 -0.051801588 -0.0011819201
1.0004175 -0.052533239 -0.0011733047
1.0004605 -0.053264912 -0.0011646892
1.0005035 -0.053996563 -0.001156074
0.99994642 -0.05448243 -0.00031273873
0.99998939 -0.055212513 -0.00030414193
1.0000323 -0.055942576 -0.00029554532
0.99947488 -0.056422088 0.00054771214
0.99951774 -0.057150546 0.0005562898
0.99956059 -0.057879038 0.00056486786
0.99960345 -0.058607511 0.00057344575
0.99904549 -0.059079066 0.0014166369
0.99908823 -0.059805963 0.0014251962
0.99913102 -0.060532846 0.0014337554
0.99917376 -0.061259713 0.0014423144
0.9992165 -0.061986595 0.0014508734
0.99925929 -0.062713496 0.0014594328
0.99930203 -0.063440375 0.001467992
0.99934483 -0.064167261 0.0014765511
0.99938756 -0.064894155 0.0014851104
0.9994303 -0.065621041 0.0014936695
0.99947309 -0.066347927 0.0015022287
0.99951583 -0.067074805 0.0015107878
0.99955863 -0.067801706 0.0015193471
0.99960136 -0.06852857 0.001527906
0.9996441 -0.069255456 0.0015364652
0.99908471 -0.06970159 0.0023793324
0.99912739 -0.070426881 0.0023878729
0.99917001 -0.071152173 0.0023964134
0.99921268 -0.071877465 0.0024049538
0.99925536 -0.072602756 0.002413494
0.99929804 -0.073328048 0.0024220345
0.99873793 -0.07376302 0.003264792
0.99878049 -0.07448674 0.0032733139
0.99882305 -0.075210437 0.0032818355
0.99886566 -0.075934134 0.0032903573
0.99890822 -0.076657839 0.0032988789
0.99895078 -0.077381551 0.0033074007
0.99899334 -0.078105249 0.0033159223
0.99903595 -0.078828953 0.0033244439
0.99968201 -0.079855695 0.0024988984
0.99972469 -0.080581002 0.0025074391
0.99976736 -0.081306294 0.0025159793
0.99981004 -0.082031585 0.0025245198
0.99985266 -0.082756892 0.0025330605
0.99989533 -0.083482184 0.0025416007
0.99993801 -0.084207475 0.0025501412
0.99998069 -0.084932767 0.0025586816
1.0000234 -0.085658073 0.0025672221
1.000066 -0.086383365 0.0025757626
1.0007131 -0.087427609 0.0017504446
1.0007559 -0.088154502 0.001759004
1.0007986 -0.088881388 0.0017675631
1.0008414 -0.089608274 0.0017761221
1.0008842 -0.090335153 0.0017846813
1.0009269 -0.091062039 0.0017932404
1.0009696 -0.091788918 0.0018017996
1.0010124 -0.092515804 0.0018103587
1.0010552 -0.093242705 0.001818918
1.0010979 -0.093969584 0.0018274772
1.0011407 -0.09469647 0.0018360363
1.0011835 -0.095423348 0.0018445955
1.0012262 -0.096150249 0.0018531549
1.001269 -0.096877128 0.0018617139
1.0019175 -0.097945228 0.0010366524
1.0019604 -0.098673716 0.0010452304
1.0020032 -0.099402197 0.0010538084
1.0020461 -0.10013067 0.0010623862
1.0020889 -0.10085914 0.001070964
1.002738 -0.10193679 0.00024604239
1.0027809 -0.10266685 0.00025463902
1.0028238 -0.10339692 0.00026323562
1.0034733 -0.10448092 -0.00056161417
1.004123 -0.10556813 -0.0013864507
1.0041661 -0.10630137 -0.0013778168
1.0048159 -0.10739333 -0.0022025728
1.0225164 -0.16934036 -0.021576121
1.0225618 -0.17011337 -0.021567021
1.0226072 -0.17088638 -0.021557918
1.0226527 -0.17165941 -0.021548815
1.0226982 -0.17243241 -0.021539712
1.0227437 -0.17320542 -0.021530611
1.0227891 -0.17397843 -0.021521509
1.0228347 -0.17475143 -0.021512406
1.0228801 -0.17552447 -0.021503303
0.72448438 0.058333647 0.38282815
0.72448438 0.058333647 0.38282815
0.72448438 0.058333647 0.38282815
0.72448438 0.058333647 0.38282815
0.72448438 0.058333647 0.38282815
0.72448438 0.058333647 0.38282815
0.72448438 0.058333647 0.38282815
0.72448438 0.058333647 0.38282815
0.72448438 0.058333647 0.38282815
0.72448438 0.058333647 0.38282815
0.72448438 0.058333647 0.38282815
0.72448438 0.058333647 0.38282815
0.72448438 0.058333647 0.38282815
0.72448438 0.058333647 0.38282815
0.72448438 0.058333647 0.38282815
0.72448438 0.058333647 0.38282815
0.72448438 0.058333647 0.38282815
0.72448438 0.058333647 0.38282815
0.72448438 0.058333647 0.38282815
0.72448438 0.058333647 0.38282815
0.72448438 0.058333647 0.38282815
0.72448438 0.058333647 0.38282815
0.72448438 0.058333647 0.38282815
0.72448438 0.058333647 0.38282815
0.72448438 0.058333647 0.38282815
0.72448438 0.058333647 0.38282815
0.72448438 0.058333647 0.38282815
0.72448438 0.058333647 0.38282815
0.72448438 0.058333647 0.38282815
0.72448438 0.058333647 0.38282815
0.72448438 0.058333647 0.38282815
0.72448438 0.058333647 0.38282815
0.72448438 0.058333647 0.38282815
0.72448438 0.058333647 0.38282815
0.72448438 0.058333647 0.38282815
0.72448438 0.058333647 0.38282815
0.72448438 0.058333647 0.38282815
0.72448438 0.058333647 0.38282815
0.72448438 0.058333647 0.38282815
0.72448438 0.058333647 0.38282815
0.72448438 0.058333647 0.38282815
0.72448438 0.058333647 0.38282815
0.72448438 0.058333647 0.38282815
0.72448438 0.058333647 0.38282815
0.72448438 0.058333647 0.38282815
0.72448438 0.058333647 0.38282815
0.72448438 0.058333647 0.38282815
0.72448438 0.058333647 0.38282815
0.72448438 0.058333647 0.38282815
0.72448438 0.058333647 0.38282815
0.72448438 0.058333647 0.38282815
0.72448438 0.058333647 0.38282815
0.72448438 0.058333647 0.38282815
0.72448438 0.058333647 0.38282815
0.72448438 0.058333647 0.38282815
0.72448438 0.058333647 0.38282815
0.72448438 0.058333647 0.38282815
0.72448438 0.058333647 0.38282815
0.72448438 0.058333647 0.38282815
0.72448438 0.058333647 0.38282815
0.72448438 0.058333647 0.38282815
0.72448438 0.058333647 0.38282815
0.72448438 0.058333647 0.38282815
0.72448438 0.058333647 0.38282815
0.72448438 0.058333647 0.38282815
0.72448438 0.058333647 0.38282815
0.72448438 0.058333647 0.38282815
0.72448438 0.058333647 0.38282815
0.72448438 0.058333647 0.38282815
0.72448438 0.058333647 0.38282815
0.72448438 0.058333647 0.38282815
0.72448438 0.058333647 0.38282815
0.72448438 0.058333647 0.38282815
0.72448438 0.058333647 0.38282815
0.72448438 0.058333647 0.38282815
0.72448438 0.058333647 0.38282815
0.72448438 0.058333647 0.38282815
0.72448438 0.058333647 0.38282815
0.72448438 0.058333647 0.38282815
0.98846233 0.17893554 -0.0075393976
0.98850578 0.17819753 -0.0075307074
0.98854917 0.17745951 -0.0075220168
0.98859262 0.17672148 -0.0075133266
0.98863602 0.17598346 -0.0075046364
0.98867941 0.17524545 -0.0074959463
0.98872286 0.17450742 -0.0074872556
0.98819667 0.17352062 -0.0066373968
0.98824 0.17278419 -0.0066287252
0.9888531 0.17229337 -0.0074611851
0.98832667 0.17131135 -0.0066113821
0.98837 0.1705749 -0.0066027106
0.98898333 0.17007931 -0.0074351141
0.98845661 0.16910206 -0.0065853675
0.98849994 0.16836563 -0.0065766959
0.98854327 0.1676292 -0.0065680244
0.9885866 0.16689277 -0.0065593529
0.98862988 0.16615634 -0.0065506813
0.98867321 0.16541991 -0.0065420098
0.98871654 0.16468348 -0.0065333382
0.98875988 0.16394705 -0.0065246667
0.98823231 0.1629841 -0.0056750667
0.98827553 0.16224927 -0.0056664138
0.98831874 0.16151443 -0.0056577609
0.98836195 0.16077958 -0.005649108
0.98783398 0.15982459 -0.0047996235
0.98787707 0.15909135 -0.0047909897
0.98792022 0.1583581 -0.0047823554
0.98739183 0.15740946 -0.0039329212
0.98743486 0.1566778 -0.0039243056
0.9874779 0.15594615 -0.0039156904
0.98694915 0.15500388 -0.0030663586
0.98699206 0.15427382 -0.0030577618
0.98703504 0.15354376 -0.0030491652
0.98707795 0.15281367 -0.0030405687
0.98654872 0.15187937 -0.0021913305
0.98659158 0.15115088 -0.0021827526
0.98663443 0.15042242 -0.0021741746
0.98667729 0.14969394 -0.0021655967
0.98672014 0.14896546 -0.0021570188
0.986763 0.14823699 -0.002148441
0.98680586 0.1475085 -0.0021398631
0.98684871 0.14678003 -0.0021312851
0.98746449 0.14624308 -0.002963199
0.9875074 0.14551301 -0.0029546025
0.98755038 0.14478295 -0.0029460057
0.98816651 0.14423963 -0.0037778446
0.98820961 0.14350797 -0.0037692294
0.98825264 0.14277631 -0.003760614
0.98886919 0.14222665 -0.0045924056
0.98891228 0.14149338 -0.0045837713
0.98895544 0.14076014 -0.0045751375
0.98899859 0.1400269 -0.0045665032
0.98904169 0.13929364 -0.0045578689
0.98908484 0.1385604 -0.0045492351
0.98912799 0.13782716 -0.0045406008
0.98917109 0.1370939 -0.004531967
0.98864001 0.1361914 -0.0036830758
0.98868304 0.13545975 -0.0036744603
0.98872608 0.13472807 -0.0036658449
0.98876911 0.13399643 -0.0036572297
0.9882375 0.13310188 -0.0028084596
0.98828048 0.13237181 -0.002799863
0.98832339 0.13164175 -0.0027912664
0.98836637 0.13091168 -0.0027826696
0.98840928 0.13018161 -0.002774073
0.98787719 0.1292966 -0.0019254155
0.98792005 0.12856813 -0.0019168376
0.98796284 0.12783965 -0.0019082597
0.9880057 0.12711117 -0.0018996818
0.98804855 0.12638269 -0.0018911039
0.98751587 0.12550724 -0.0010425312
0.9875586 0.12478035 -0.001033972
0.9876014 0.12405346 -0.0010254128
0.98764414 0.12332657 -0.0010168536
0.98768687 0.12259968 -0.0010082945
0.98772967 0.1218728 -0.00099973532
0.98777241 0.12114592 -0.00099117612
0.9878152 0.12041903 -0.00098261691
0.98785794 0.11969214 -0.00097405777
0.98790067 0.11896526 -0.00096549862
0.98794347 0.11823837 -0.00095693948
0.98798621 0.11751149 -0.00094838027
0.98860568 0.11691251 -0.0017795912
0.98864853 0.11618403 -0.0017710133
0.98869139 0.11545555 -0.0017624353
0.98873425 0.11472707 -0.0017538575
0.9887771 0.1139986 -0.0017452795
0.98939711 0.11339007 -0.0025763507
0.98944002 0.11266001 -0.0025677539
0.989483 0.11192994 -0.0025591573
0.98952591 0.11119986 -0.0025505607
0.98956889 0.1104698 -0.0025419642
0.9896118 0.10973974 -0.0025333674
0.99023247 0.10912007 -0.0033643073
0.9902755 0.10838842 -0.0033556921
0.99031854 0.10765675 -0.0033470767
0.99036157 0.1069251 -0.0033384613
0.99040461 0.10619345 -0.0033298461
0.99102587 0.10556424 -0.0041607008
0.99106902 0.10483099 -0.004152067
0.99111211 0.10409774 -0.0041434327
0.99115527 0.1033645 -0.0041347989
0.99177694 0.10272734 -0.0049655358
0.99182016 0.1019925 -0.0049568829
0.99186337 0.10125766 -0.00494823
0.99190664 0.10052282 -0.0049395771
0.99194986 0.09978798 -0.0049309242
0.99199307 0.099053144 -0.0049222717
0.99203628 0.098318301 -0.0049136188
0.99207956 0.097583465 -0.0049049659
0.99212277 0.096848629 -0.004896313
0.99216598 0.096113786 -0.00488766
0.9922092 0.09537895 -0.0048790076
0.99225247 0.094644114 -0.0048703547
0.99171603 0.093832269 -0.0040225554
0.99175912 0.09309902 -0.0040139216
0.99180228 0.092365772 -0.0040052873
0.99184543 0.091632523 -0.0039966535
0.99130845 0.090828635 -0.0031489234
0.99135154 0.09009698 -0.0031403082
0.99139458 0.089365318 -0.0031316928
0.99085724 0.088567793 -0.0022840651
0.99148065 0.087902009 -0.0031144619
0.99152368 0.087170348 -0.0031058467
0.99156672 0.086438693 -0.0030972313
0.99160975 0.085707031 -0.0030886158
0.99165279 0.084975377 -0.0030800006
0.99227673 0.084300049 -0.0039103124
0.99231988 0.0835668 -0.0039016784
0.99294406 0.082886696 -0.0047319094
0.99298733 0.082151853 -0.0047232569
0.99361181 0.08146698 -0.0055534532
0.99365515 0.08073055 -0.0055447817
1.0001198 -0.039096504 -0.003295542
0.99956638 -0.039618868 -0.0024511516
0.99901271 -0.040138047 -0.0016067742
0.99845886 -0.040654045 -0.00076246163
0.72448438 0.058333647 0.38282815
0.72448438 0.058333647 0.38282815
0.99679619 -0.042182963 0.0017702816
0.99683881 -0.042908248 0.0017788219
0.99688148 -0.043633547 0.0017873624
0.99692416 -0.044358846 0.0017959028
0.99696684 -0.045084137 0.0018044433
0.99760711 -0.046037812 0.0009774334
0.99824762 -0.046994682 0.00015043672
0.99829048 -0.047723155 0.0001590146
0.99893123 -0.048684783 -0.00066789868
0.9989742 -0.049414847 -0.00065930211
0.99961525 -0.050381254 -0.001486159
0.99965829 -0.051112913 -0.0014775437
0.99970132 -0.051844563 -0.0014689284
0.99974436 -0.052576214 -0.0014603132
0.99978739 -0.053307887 -0.0014516977
0.99983042 -0.054039534 -0.0014430824
0.99927485 -0.054525312 -0.00059912575
0.99931777 -0.055255391 -0.00059052894
0.99936074 -0.055985458 -0.00058193231
0.99940366 -0.056715511 -0.00057333586
0.99884754 -0.057193335 0.00027052715
0.9988904 -0.057921823 0.00027910521
0.99893326 -0.0586503 0.00028768307
0.99897611 -0.059378773 0.00029626096
0.99901897 -0.060107261 0.00030483902
0.99906182 -0.060835738 0.00031341691
0.99910468 -0.061564196 0.00032199459
0.99914753 -0.062292673 0.00033057248
0.99919039 -0.063021161 0.00033915055
0.99923325 -0.063749634 0.00034772843
0.9992761 -0.064478107 0.00035630629
0.99931896 -0.065206602 0.00036488436
0.99936181 -0.06593506 0.00037346207
0.99940467 -0.066663533 0.00038203996
0.99944752 -0.067392007 0.00039061782
0.99949038 -0.068120502 0.00039919588
0.99953324 -0.068848975 0.00040777377
0.99897546 -0.069298148 0.0012513269
0.99901819 -0.070025049 0.0012598862
0.99906093 -0.070751928 0.0012684453
0.99910372 -0.071478814 0.0012770045
0.99914646 -0.0722057 0.0012855636
0.99858814 -0.072645351 0.0021289801
0.99863082 -0.073370643 0.0021375206
0.99867344 -0.074095935 0.0021460608
0.99871612 -0.074821241 0.0021546015
0.99875879 -0.075546533 0.002163142
0.99880147 -0.076271825 0.0021716822
0.99884415 -0.076997116 0.0021802227
0.99888682 -0.077722423 0.0021887633
0.99892944 -0.078447714 0.0021973036
0.99897212 -0.079173006 0.002205844
0.99901479 -0.079898298 0.0022143845
0.99905747 -0.080623604 0.002222925
0.99910015 -0.081348896 0.0022314654
0.99974513 -0.082382105 0.0014053921
0.99978787 -0.083108984 0.0014139513
0.9998306 -0.08383587 0.0014225104
0.9998734 -0.084562756 0.0014310695
0.99991614 -0.085289635 0.0014396287
0.99995887 -0.086016536 0.001448188
1.0000017 -0.086743414 0.0014567471
1.0000445 -0.0874703 0.0014653063
1.0000871 -0.088197201 0.0014738656
1.0001299 -0.08892408 0.0014824247
1.0001727 -0.089650966 0.0014909839
1.0002154 -0.090377845 0.001499543
1.0002582 -0.091104731 0.0015081021
1.000301 -0.091831617 0.0015166613
1.0003437 -0.092558496 0.0015252203
1.0003865 -0.093285397 0.0015337797
1.0010331 -0.094345644 0.00070800027
1.001076 -0.095074117 0.00071657816
1.0011188 -0.09580259 0.00072515605
1.0011617 -0.096531086 0.00073373411
1.0012045 -0.097259544 0.00074231182
1.0012474 -0.097988017 0.00075088971
1.0012902 -0.098716505 0.00075946777
1.0019375 -0.09978947 -6.6134489e-05
1.0019804 -0.10051954 -5.7537865e-05
1.0020235 -0.10124959 -4.894142e-05
1.0020664 -0.10197967 -4.0344621e-05
1.0027142 -0.10306058 -0.00086585333
1.0027572 -0.10379224 -0.00085723796
1.0034053 -0.10487794 -0.0016827177
1.0034484 -0.10561121 -0.0016740834
1.0040967 -0.10670166 -0.0024994826
1.0220326 -0.17325082 -0.021833843
1.022078 -0.17402384 -0.02182474
1.0221235 -0.17479683 -0.021815639
1.022169 -0.17556988 -0.021806536
0.72448438 0.058333647 0.38282815
0.72448438 0.058333647 0.38282815
0.72448438 0.058333647 0.38282815
0.72448438 0.058333647 0.38282815
0.72448438 0.058333647 0.38282815
0.72448438 0.058333647 0.38282815
0.72448438 0.058333647 0.38282815
0.72448438 0.058333647 0.38282815
0.72448438 0.058333647 0.38282815
0.72448438 0.058333647 0.38282815
0.72448438 0.058333647 0.38282815
0.72448438 0.058333647 0.38282815
0.72448438 0.058333647 0.38282815
0.72448438 0.058333647 0.38282815
0.72448438 0.058333647 0.38282815
0.72448438 0.058333647 0.38282815
0.72448438 0.058333647 0.38282815
0.72448438 0.058333647 0.38282815
0.72448438 0.058333647 0.38282815
0.72448438 0.058333647 0.38282815
0.72448438 0.058333647 0.38282815
0.72448438 0.058333647 0.38282815
0.72448438 0.058333647 0.38282815
0.72448438 0.058333647 0.38282815
0.72448438 0.058333647 0.38282815
0.72448438 0.058333647 0.38282815
0.72448438 0.058333647 0.38282815
0.72448438 0.058333647 0.38282815
0.72448438 0.058333647 0.38282815
0.72448438 0.058333647 0.38282815
0.72448438 0.058333647 0.38282815
0.72448438 0.058333647 0.38282815
0.72448438 0.058333647 0.38282815
0.72448438 0.058333647 0.38282815
0.72448438 0.058333647 0.38282815
0.72448438 0.058333647 0.38282815
0.72448438 0.058333647 0.38282815
0.72448438 0.058333647 0.38282815
0.72448438 0.058333647 0.38282815
0.72448438 0.058333647 0.38282815
0.72448438 0.058333647 0.38282815
0.72448438 0.058333647 0.38282815
0.72448438 0.058333647 0.38282815
0.72448438 0.058333647 0.38282815
0.72448438 0.058333647 0.38282815
0.72448438 0.058333647 0.38282815
0.72448438 0.058333647 0.38282815
0.72448438 0.058333647 0.38282815
0.72448438 0.058333647 0.38282815
0.72448438 0.058333647 0.38282815
0.72448438 0.058333647 0.38282815
0.72448438 0.058333647 0.38282815
0.72448438 0.058333647 0.38282815
0.72448438 0.058333647 0.38282815
0.72448438 0.058333647 0.38282815
0.72448438 0.058333647 0.38282815
0.72448438 0.058333647 0.38282815
0.72448438 0.058333647 0.38282815
0.72448438 0.058333647 0.38282815
0.72448438 0.058333647 0.38282815
0.72448438 0.058333647 0.38282815
0.72448438 0.058333647 0.38282815
0.72448438 0.058333647 0.38282815
0.72448438 0.058333647 0.38282815
0.72448438 0.058333647 0.38282815
0.72448438 0.058333647 0.38282815
0.72448438 0.058333647 0.38282815
0.72448438 0.058333647 0.38282815
0.72448438 0.058333647 0.38282815
0.72448438 0.058333647 0.38282815
0.72448438 0.058333647 0.38282815
0.72448438 0.058333647 0.38282815
0.72448438 0.058333647 0.38282815
0.72448438 0.058333647 0.38282815
0.72448438 0.058333647 0.38282815
0.72448438 0.058333647 0.38282815
0.72448438 0.058333647 0.38282815
0.72448438 0.058333647 0.38282815
0.72448438 0.058333647 0.38282815
0.98738927 0.17568666 -0.00695229
0.9874326 0.17495023 -0.0069436184
0.98747593 0.1742138 -0.0069349469
0.98751926 0.17347737 -0.0069262753
0.98756254 0.17274095 -0.0069176038
0.98760587 0.17200452 -0.0069089322
0.9876492 0.17126809 -0.0069002607
0.98769253 0.17053166 -0.0068915891
0.98773587 0.16979523 -0.0068829176
0.98777914 0.1690588 -0.0068742461
0.98782247 0.16832237 -0.0068655745
0.98786581 0.16758594 -0.006856903
0.98790914 0.16684951 -0.006848231
0.98795247 0.16611308 -0.0068395599
0.98799574 0.16537665 -0.0068308883
0.98746985 0.16441062 -0.0059806262
0.98751307 0.16367577 -0.0059719738
0.98755628 0.16294093 -0.0059633208
0.98759955 0.1622061 -0.0059546679
0.98764277 0.16147126 -0.005946015
0.98711628 0.16051477 -0.0050958875
0.98715943 0.15978153 -0.0050872532
0.98720258 0.15904829 -0.0050786193
0.98724568 0.15831502 -0.0050699851
0.98671871 0.15736648 -0.0042199297
0.98676175 0.15663482 -0.004211314
0.98680484 0.15590318 -0.0042026988
0.98627752 0.154961 -0.0033527426
0.98632044 0.15423094 -0.0033441461
0.98636341 0.15350087 -0.0033355495
0.98640633 0.1527708 -0.0033269527
0.98587859 0.15183659 -0.0024770873
0.98592144 0.1511081 -0.0024685094
0.9859643 0.15037963 -0.0024599317
0.98600715 0.14965115 -0.0024513535
0.98605001 0.14892268 -0.0024427758
0.98609287 0.14819421 -0.0024341978
0.98613572 0.14746572 -0.0024256199
0.98617858 0.14673725 -0.0024170419
0.98679286 0.14620019 -0.0032495831
0.98683584 0.14547013 -0.0032409865
0.98687875 0.14474007 -0.0032323899
0.98749346 0.14419666 -0.0040648533
0.98753649 0.143465 -0.0040562376
0.98757952 0.14273334 -0.0040476224
0.98819464 0.14218357 -0.0048800353
0.9882378 0.14145032 -0.004871401
0.98828089 0.14071707 -0.0048627672
0.98832405 0.13998383 -0.0048541329
0.9883672 0.13925058 -0.0048454991
0.98841029 0.13851734 -0.0048368648
0.98845345 0.13778409 -0.0048282309
0.9884966 0.13705084 -0.0048195967
0.9879669 0.13614842 -0.0039700842
0.98800993 0.13541678 -0.003961469
0.98805296 0.1346851 -0.0039528534
0.988096 0.13395345 -0.0039442382
0.98813909 0.13322179 -0.0039356225
0.98818213 0.13249014 -0.0039270073
0.98765182 0.13159886 -0.0030776504
0.98769474 0.13086879 -0.0030690539
0.98773772 0.13013873 -0.0030604573
0.98778063 0.12940866 -0.0030518605
0.98782361 0.12867859 -0.0030432639
0.98729271 0.12779686 -0.0021940165
0.98733556 0.12706839 -0.0021854388
0.98737842 0.12633991 -0.0021768608
0.98742127 0.12561144 -0.0021682829
0.98746413 0.12488296 -0.0021597049
0.98750699 0.12415448 -0.002151127
0.98754984 0.12342601 -0.0021425493
0.98701823 0.12255699 -0.0012934299
0.98706096 0.12183011 -0.0012848708
0.98710376 0.12110322 -0.0012763116
0.98772126 0.1205121 -0.0021082375
0.98776412 0.11978363 -0.0020996595
0.98780698 0.11905515 -0.0020910818
0.98784983 0.11832667 -0.0020825039
0.98789269 0.1175982 -0.0020739259
0.98793554 0.11686972 -0.002065348
0.9879784 0.11614124 -0.00205677
0.98802125 0.11541276 -0.0020481923
0.98863959 0.11480732 -0.0028799279
0.98868251 0.11407726 -0.0028713313
0.98872548 0.11334719 -0.0028627347
0.9887684 0.11261712 -0.0028541381
0.98881137 0.11188706 -0.0028455416
0.98943025 0.11127207 -0.0036771619
0.98947334 0.11054041 -0.0036685464
0.98951638 0.10980875 -0.0036599312
0.98955941 0.1090771 -0.0036513158
0.98960245 0.10834544 -0.0036427004
0.98964548 0.10761379 -0.0036340852
0.99026507 0.10698767 -0.0044655991
0.99030817 0.10625442 -0.0044569648
0.99035132 0.10552117 -0.004448331
0.99039447 0.10478792 -0.0044396967
0.99101448 0.10415385 -0.0052710953
0.99105769 0.10341901 -0.0052624424
0.99110097 0.10268418 -0.0052537899
0.99114418 0.10194933 -0.005245137
0.99176466 0.10130732 -0.0060764635
0.99123061 0.10047966 -0.0052278312
0.99127388 0.099744819 -0.0052191783
0.99131709 0.099009983 -0.0052105258
0.99136031 0.09827514 -0.0052018729
0.99140352 0.097540304 -0.00519322
0.99144679 0.096805468 -0.0051845671
0.99149001 0.096070632 -0.0051759146
0.99095517 0.095255695 -0.0043274537
0.99099833 0.094522454 -0.0043188194
0.99104148 0.093789205 -0.0043101856
0.99108458 0.093055956 -0.0043015513
0.99112773 0.092322707 -0.0042929174
0.99059236 0.091517322 -0.0034445473
0.9906354 0.09078566 -0.0034359319
0.99067843 0.090054005 -0.0034273164
0.9901427 0.089254983 -0.0025790459
0.99018568 0.088524915 -0.0025704494
0.99080759 0.087859035 -0.0034014704
0.99085063 0.087127373 -0.0033928552
0.99089366 0.086395718 -0.0033842397
0.9909367 0.085664056 -0.0033756243
0.99155909 0.084990226 -0.0042065764
0.99160218 0.084256977 -0.0041979421
0.99164534 0.083523728 -0.0041893083
0.99226809 0.082843535 -0.0050201635
0.9923113 0.082108691 -0.005011511
0.99293435 0.08142373 -0.0058423318
0.99297768 0.080687299 -0.0058336603
0.99948704 -0.039874505 -0.0035751432
0.99893498 -0.040395185 -0.0027301472
0.99838263 -0.040912677 -0.0018851672
0.99783015 -0.041427001 -0.001040249
0.72448438 0.058333647 0.38282815
0.72448438 0.058333647 0.38282815
0.99617159 -0.042950846 0.0014943108
0.99621427 -0.043676145 0.0015028513
0.99625695 -0.044401444 0.0015113917
0.99629962 -0.045126736 0.0015199322
0.9963423 -0.045852028 0.0015284725
0.9969812 -0.046807401 0.00070085732
0.99762034 -0.047765944 -0.00012674225
0.9976632 -0.048494417 -0.00011816437
0.99830258 -0.049457729 -0.00094568619
0.9989422 -0.050424229 -0.0017731675
0.99898523 -0.051155888 -0.0017645521
0.99902827 -0.051887535 -0.0017559369
0.9990713 -0.052619185 -0.0017473216
0.99911433 -0.053350858 -0.001738706
0.99915737 -0.054082509 -0.0017300908
0.9992004 -0.054814167 -0.0017214754
0.99864614 -0.055298273 -0.00087691302
0.99868912 -0.05602834 -0.00086831639
0.99873203 -0.056758389 -0.00085971993
0.99877501 -0.057488456 -0.00085112336
0.99881792 -0.058218539 -0.00084252656
0.99826312 -0.058693085 1.9262304e-06
0.99830598 -0.059421558 1.0504111e-05
0.99834883 -0.06015005 1.9082167e-05
0.99839169 -0.060878523 2.7660048e-05
0.99843454 -0.061606985 3.6237754e-05
0.9984774 -0.062335458 4.4815635e-05
0.99852026 -0.063063949 5.3393691e-05
0.99856311 -0.063792422 6.1971572e-05
0.99860597 -0.064520895 7.0549453e-05
0.99864882 -0.065249383 7.9127509e-05
0.99869168 -0.065977849 8.7705215e-05
0.99873453 -0.066706322 9.6283096e-05
0.99877739 -0.067434795 0.00010486098
0.99882025 -0.068163283 0.00011343903
0.9988631 -0.068891756 0.00012201691
0.99890596 -0.069620237 0.0001305948
0.99894881 -0.07034871 0.00013917267
0.99899167 -0.071077183 0.00014775056
0.99903452 -0.071805656 0.00015632843
0.99847776 -0.072248392 0.0010004281
0.99852055 -0.072975285 0.0010089874
0.99856329 -0.073702171 0.0010175466
0.99860609 -0.074429058 0.0010261057
0.99864882 -0.075155951 0.001034665
0.99869156 -0.075882822 0.001043224
0.99873435 -0.076609701 0.0010517832
0.99877709 -0.077336587 0.0010603423
0.99881989 -0.078063488 0.0010689016
0.99886262 -0.078790367 0.0010774607
0.99890536 -0.079517253 0.0010860199
0.99894816 -0.080244131 0.001094579
0.99899089 -0.080971032 0.0011031383
0.99903369 -0.081697911 0.0011116975
0.99907643 -0.082424797 0.0011202566
0.99972016 -0.083461285 0.00029357488
0.99976301 -0.084189758 0.00030215277
0.99980587 -0.084918231 0.00031073065
0.99984872 -0.085646704 0.00031930851
0.99989158 -0.086375192 0.00032788658
0.99993443 -0.087103672 0.00033646447
0.99997729 -0.087832145 0.00034504235
1.0000201 -0.088560618 0.00035362021
1.0000629 -0.089289092 0.0003621981
1.0001059 -0.090017565 0.00037077599
1.0001487 -0.090746045 0.00037935388
1.0001916 -0.091474533 0.00038793191
1.0002344 -0.092203006 0.0003965098
1.0002773 -0.092931464 0.00040508751
1.0003201 -0.093659952 0.00041366558
1.000363 -0.094388433 0.00042224344
1.0004058 -0.095116906 0.00043082132
1.0004487 -0.095845379 0.00043939921
1.0004915 -0.096573867 0.00044797728
1.001137 -0.097642139 -0.00037830861
1.0011801 -0.098372206 -0.00036971198
1.001223 -0.099102288 -0.00036111521
1.0012659 -0.099832356 -0.00035251857
1.001912 -0.10090858 -0.0011787078
1.001955 -0.10164024 -0.0011700925
1.0019981 -0.10237192 -0.0011614769
1.0020411 -0.10310356 -0.0011528617
1.0026876 -0.10418776 -0.0019789815
1.0027307 -0.10492101 -0.0019703475
1.0033776 -0.10600998 -0.0027963896
1.0034207 -0.10674483 -0.0027877367
1.0203023 -0.16587684 -0.02138555
1.0203476 -0.16664825 -0.021376466
1.020393 -0.16741967 -0.021367382
1.0204384 -0.16819111 -0.021358298
1.0204837 -0.16896251 -0.021349216
1.0205292 -0.16973393 -0.021340132
1.0205746 -0.17050534 -0.021331048
1.0206199 -0.17127678 -0.021321965
1.0206653 -0.1720482 -0.021312881
1.0207107 -0.17281961 -0.021303797
1.020756 -0.17359103 -0.021294715
1.0208014 -0.17436245 -0.021285631
1.0208468 -0.1751339 -0.021276547
0.72448438 0.058333647 0.38282815
0.72448438 0.058333647 0.38282815
0.72448438 0.058333647 0.38282815
0.72448438 0.058333647 0.38282815
0.72448438 0.058333647 0.38282815
0.72448438 0.058333647 0.38282815
0.72448438 0.058333647 0.38282815
0.72448438 0.058333647 0.38282815
0.72448438 0.058333647 0.38282815
0.72448438 0.058333647 0.38282815
0.72448438 0.058333647 0.38282815
0.72448438 0.058333647 0.38282815
0.72448438 0.058333647 0.38282815
0.72448438 0.058333647 0.38282815
0.72448438 0.058333647 0.38282815
0.72448438 0.058333647 0.38282815
0.72448438 0.058333647 0.38282815
0.72448438 0.058333647 0.38282815
0.72448438 0.058333647 0.38282815
0.72448438 0.058333647 0.38282815
0.72448438 0.058333647 0.38282815
0.72448438 0.058333647 0.38282815
0.72448438 0.058333647 0.38282815
0.72448438 0.058333647 0.38282815
0.72448438 0.058333647 0.38282815
0.72448438 0.058333647 0.38282815
0.72448438 0.058333647 0.38282815
0.72448438 0.058333647 0.38282815
0.72448438 0.058333647 0.38282815
0.72448438 0.058333647 0.38282815
0.72448438 0.058333647 0.38282815
0.72448438 0.058333647 0.38282815
0.72448438 0.058333647 0.38282815
0.72448438 0.058333647 0.38282815
0.72448438 0.058333647 0.38282815
0.72448438 0.058333647 0.38282815
0.72448438 0.058333647 0.38282815
0.72448438 0.058333647 0.38282815
0.72448438 0.058333647 0.38282815
0.72448438 0.058333647 0.38282815
0.72448438 0.058333647 0.38282815
0.72448438 0.058333647 0.38282815
0.72448438 0.058333647 0.38282815
0.72448438 0.058333647 0.38282815
0.72448438 0.058333647 0.38282815
0.72448438 0.058333647 0.38282815
0.72448438 0.058333647 0.38282815
0.72448438 0.058333647 0.38282815
0.72448438 0.058333647 0.38282815
0.72448438 0.058333647 0.38282815
0.72448438 0.058333647 0.38282815
0.72448438 0.058333647 0.38282815
0.72448438 0.058333647 0.38282815
0.72448438 0.058333647 0.38282815
0.72448438 0.058333647 0.38282815
0.72448438 0.058333647 0.38282815
0.72448438 0.058333647 0.38282815
0.72448438 0.058333647 0.38282815
0.72448438 0.058333647 0.38282815
0.72448438 0.058333647 0.38282815
0.72448438 0.058333647 0.38282815
0.72448438 0.058333647 0.38282815
0.72448438 0.058333647 0.38282815
0.72448438 0.058333647 0.38282815
0.72448438 0.058333647 0.38282815
0.72448438 0.058333647 0.38282815
0.72448438 0.058333647 0.38282815
0.72448438 0.058333647 0.38282815
0.72448438 0.058333647 0.38282815
0.72448438 0.058333647 0.38282815
0.72448438 0.058333647 0.38282815
0.72448438 0.058333647 0.38282815
0.72448438 0.058333647 0.38282815
0.72448438 0.058333647 0.38282815
0.72448438 0.058333647 0.38282815
0.72448438 0.058333647 0.38282815
0.72448438 0.058333647 0.38282815
0.72448438 0.058333647 0.38282815
0.72448438 0.058333647 0.38282815
0.98666847 0.17637983 -0.0072498429
0.9867118 0.17564341 -0.0072411713
0.98675513 0.17490697 -0.0072324998
0.98679847 0.17417055 -0.0072238282
0.9868418 0.17343412 -0.0072151567
0.98688507 0.17269769 -0.0072064851
0.9869284 0.17196126 -0.0071978136
0.98697174 0.17122483 -0.0071891421
0.98701507 0.1704884 -0.0071804705
0.9870584 0.16975197 -0.007171799
0.98710167 0.16901554 -0.0071631274
0.98714501 0.16827913 -0.0071544559
0.98718834 0.16754268 -0.0071457843
0.98723167 0.16680625 -0.0071371128
0.98670739 0.16583712 -0.006286189
0.9867506 0.16510229 -0.006277536
0.98679382 0.16436745 -0.0062688836
0.98683709 0.16363262 -0.0062602307
0.9868803 0.16289778 -0.0062515778
0.98692352 0.16216294 -0.0062429248
0.98696673 0.16142811 -0.0062342724
0.98644173 0.16047171 -0.0053835232
0.98648489 0.15973845 -0.0053748889
0.98652804 0.15900521 -0.0053662551
0.98657113 0.15827195 -0.0053576208
0.98604566 0.15732351 -0.0045069382
0.98608869 0.15659186 -0.0044983225
0.98613173 0.1558602 -0.0044897073
0.9856059 0.15491812 -0.0036391267
0.98564887 0.15418805 -0.0036305301
0.98569179 0.15345798 -0.0036219335
0.98573476 0.15272792 -0.0036133367
0.98520845 0.15179379 -0.0027628499
0.98525131 0.15106532 -0.002754272
0.9852941 0.15033685 -0.0027456942
0.98533696 0.14960836 -0.0027371163
0.98537982 0.14887989 -0.0027285384
0.98542267 0.14815141 -0.0027199604
0.98546553 0.14742294 -0.0027113825
0.98550838 0.14669447 -0.0027028047
0.98612124 0.14615732 -0.0035359671
0.98616421 0.14542726 -0.0035273705
0.98620713 0.14469719 -0.0035187739
0.9862501 0.14396712 -0.0035101774
0.98629302 0.14323705 -0.0035015806
0.98690647 0.14269036 -0.0043346309
0.9869495 0.14195871 -0.0043260152
0.98699254 0.14122705 -0.0043174
0.98703557 0.14049539 -0.0043087848
0.9876495 0.13994077 -0.0051417686
0.98769265 0.13920751 -0.0051331348
0.98773575 0.13847427 -0.0051245005
0.9877789 0.13774101 -0.0051158667
0.98782206 0.13700777 -0.0051072324
0.98786515 0.13627452 -0.0050985981
0.98733687 0.1353738 -0.0042484771
0.98737991 0.13464212 -0.0042398619
0.98742294 0.13391048 -0.0042312467
0.98746598 0.13317882 -0.004222631
0.98750901 0.13244717 -0.0042140158
0.98755205 0.13171551 -0.0042054006
0.98702312 0.13082591 -0.0033554379
0.98706609 0.13009585 -0.0033468413
0.98710901 0.12936579 -0.0033382447
0.98715198 0.12863572 -0.0033296482
0.98719496 0.12790565 -0.0033210514
0.98723787 0.12717558 -0.0033124548
0.98670828 0.12629712 -0.0024626234
0.98675114 0.12556864 -0.0024540455
0.98679399 0.12484017 -0.0024454675
0.98683685 0.1241117 -0.0024368898
0.98687971 0.12338322 -0.0024283119
0.98692256 0.12265474 -0.0024197339
0.98696542 0.12192626 -0.002411156
0.98700827 0.12119779 -0.002402578
0.98705113 0.12046931 -0.0023940003
0.98709399 0.11974084 -0.0023854224
0.98713684 0.11901236 -0.0023768444
0.9871797 0.11828388 -0.0023682665
0.98722249 0.11755541 -0.0023596885
0.98726535 0.11682693 -0.0023511108
0.9873082 0.11609845 -0.0023425329
0.98792499 0.1154945 -0.0031749087
0.98796797 0.11476444 -0.0031663121
0.98801094 0.11403438 -0.0031577153
0.98805386 0.11330431 -0.0031491187
0.98809683 0.11257424 -0.0031405222
0.98871416 0.11196075 -0.0039727855
0.98875719 0.11122909 -0.0039641703
0.98880023 0.11049744 -0.0039555551
0.98884326 0.10976578 -0.0039469395
0.9888863 0.10903413 -0.0039383243
0.98950428 0.1084111 -0.0047705029
0.98954737 0.10767785 -0.0047618686
0.98959053 0.10694461 -0.0047532348
0.98963368 0.10621136 -0.0047446005
0.99025202 0.10558037 -0.0055766581
0.99029523 0.10484553 -0.0055680051
0.9903385 0.10411069 -0.0055593522
0.99095726 0.10347335 -0.0063913595
0.99100059 0.10273692 -0.0063826879
0.99104393 0.10200049 -0.0063740164
0.9910872 0.10126407 -0.0063653449
0.99113053 0.10052763 -0.0063566733
0.99117386 0.099791199 -0.0063480018
0.9912172 0.099054776 -0.0063393302
0.99068433 0.098231979 -0.0054901298
0.99072754 0.097497143 -0.0054814769
0.99077076 0.096762307 -0.0054728244
0.99081397 0.096027471 -0.0054641715
0.99028063 0.095212631 -0.0046150894
0.99032378 0.094479382 -0.0046064551
0.99036694 0.093746133 -0.0045978213
0.99041003 0.093012892 -0.004589187
0.98987627 0.092206001 -0.003740171
0.9899193 0.091474347 -0.0037315555
0.98996234 0.090742685 -0.0037229403
0.99000537 0.09001103 -0.0037143249
0.99004841 0.089279369 -0.0037057095
0.99009144 0.088547714 -0.0036970943
0.99013448 0.08781606 -0.0036884788
0.99017751 0.087084398 -0.0036798634
0.99022055 0.086352743 -0.0036712482
0.99084139 0.08568041 -0.0045028459
0.99088454 0.084947161 -0.0044942121
0.99092764 0.084213912 -0.0044855778
0.99154884 0.083535209 -0.0053170738
0.99159211 0.082800373 -0.0053084209
0.99163532 0.08206553 -0.0052997679
0.99225688 0.081380472 -0.0061312132
0.99230021 0.080644041 -0.0061225416
0.99234354 0.079907618 -0.0061138701
0.99885428 -0.040652506 -0.0038547474
0.99830353 -0.041171502 -0.0030091489
0.99775261 -0.04168731 -0.0021635604
0.9972015 -0.042199939 -0.0013180366
0.99665022 -0.042709392 -0.00047255028
0.9960987 -0.043215659 0.00037292589
0.72448438 0.058333647 0.38282815
0.99618423 -0.044669431 0.00039004424
0.99622703 -0.045396313 0.00039860338
0.99567503 -0.045894627 0.0012439585
0.9963125 -0.046850096 0.00041572185
0.9963553 -0.047576979 0.000424281
0.99699306 -0.048537206 -0.00040392706
0.99763095 -0.049500607 -0.0012320703
0.99767393 -0.050230682 -0.0012234736
0.99831212 -0.051198859 -0.0020515607
0.99835521 -0.05193051 -0.0020429452
0.99839824 -0.05266216 -0.00203433
0.99844128 -0.053393833 -0.0020257144
0.99848431 -0.054125484 -0.0020170992
0.99852735 -0.054857142 -0.0020084837
0.99857038 -0.055588808 -0.0019998683
0.99801749 -0.056071218 -0.0011547005
0.99806046 -0.056801271 -0.0011461041
0.99810338 -0.057531334 -0.0011375074
0.99814636 -0.058261417 -0.0011289106
0.99818927 -0.058991484 -0.001120314
0.99823225 -0.059721548 -0.0011117174
0.9976787 -0.060192835 -0.00026668052
0.99772155 -0.060921311 -0.00025810263
0.99776441 -0.06164977 -0.00024952492
0.99840403 -0.062641814 -0.0010773309
0.99844694 -0.063371882 -0.0010687343
0.99848992 -0.064101949 -0.0010601376
0.99853283 -0.064832009 -0.0010515411
0.99857581 -0.065562092 -0.0010429443
0.99861878 -0.066292144 -0.0010343478
0.9986617 -0.067022212 -0.0010257511
0.99870467 -0.067752279 -0.0010171545
0.99874759 -0.068482362 -0.0010085577
0.99879056 -0.069212422 -0.00099996116
0.99883348 -0.069942474 -0.00099136471
0.99827862 -0.070391499 -0.00014659001
0.99832147 -0.071119972 -0.00013801212
0.99836433 -0.071848445 -0.00012943425
0.99840719 -0.072576918 -0.00012085636
0.99845004 -0.073305406 -0.00011227831
0.9984929 -0.074033886 -0.00010370043
0.99853575 -0.074762344 -9.5122719e-05
0.99857861 -0.075490832 -8.6544664e-05
0.99862146 -0.076219305 -7.7966783e-05
0.99866432 -0.076947778 -6.9388909e-05
0.99870718 -0.077676259 -6.0811024e-05
0.99875003 -0.078404747 -5.2232968e-05
0.99879289 -0.079133205 -4.3655262e-05
0.99883574 -0.079861678 -3.5077381e-05
0.9988786 -0.080590159 -2.6499501e-05
0.99892145 -0.081318647 -1.7921444e-05
0.99896431 -0.08204712 -9.3435638e-06
0.99900717 -0.082775593 -7.6568284e-07
0.99905002 -0.083504066 7.8121984e-06
0.99909282 -0.084232546 1.6390079e-05
0.99913567 -0.084961019 2.496796e-05
0.99917853 -0.085689493 3.3545839e-05
0.99922138 -0.08641798 4.2123898e-05
0.99926424 -0.087146454 5.0701779e-05
0.9993071 -0.087874934 5.9279657e-05
0.99934995 -0.088603407 6.7857538e-05
0.99939281 -0.08933188 7.6435419e-05
0.99943566 -0.090060353 8.50133e-05
0.99947852 -0.090788826 9.3591181e-05
0.99952137 -0.091517322 0.00010216924
0.99956423 -0.092245795 0.00011074712
1.0002078 -0.093304627 -0.00071627245
1.0002507 -0.094034702 -0.00070767564
1.0002937 -0.094764754 -0.00069907919
1.0003366 -0.095494822 -0.00069048256
1.0003796 -0.096224889 -0.00068188593
1.0004225 -0.096954972 -0.00067328918
1.0004655 -0.097685024 -0.00066469272
1.0011097 -0.098756582 -0.0014915623
1.0011528 -0.099488258 -0.0014829468
1.0011958 -0.10021991 -0.0014743315
1.0012388 -0.10095156 -0.0014657163
1.0018836 -0.10203107 -0.0022925197
1.0019268 -0.10276434 -0.0022838854
1.0019699 -0.10349759 -0.0022752513
1.0196834 -0.16746497 -0.021669991
1.0197288 -0.1682364 -0.021660907
1.0197741 -0.16900782 -0.021651823
1.0198195 -0.16977924 -0.021642739
1.0198649 -0.17055066 -0.021633657
1.0199102 -0.17132209 -0.021624573
1.0199556 -0.17209351 -0.021615488
1.0200011 -0.17286493 -0.021606406
1.0200464 -0.17363635 -0.021597322
1.0200918 -0.17440777 -0.021588238
1.0201372 -0.1751792 -0.021579154
0.72448438 0.058333647 0.38282815
0.72448438 0.058333647 0.38282815
0.72448438 0.058333647 0.38282815
0.72448438 0.058333647 0.38282815
0.72448438 0.058333647 0.38282815
0.72448438 0.058333647 0.38282815
0.72448438 0.058333647 0.38282815
0.72448438 0.058333647 0.38282815
0.72448438 0.058333647 0.38282815
0.72448438 0.058333647 0.38282815
0.72448438 0.058333647 0.38282815
0.72448438 0.058333647 0.38282815
0.72448438 0.058333647 0.38282815
0.72448438 0.058333647 0.38282815
0.72448438 0.058333647 0.38282815
0.72448438 0.058333647 0.38282815
0.72448438 0.058333647 0.38282815
0.72448438 0.058333647 0.38282815
0.72448438 0.058333647 0.38282815
0.72448438 0.058333647 0.38282815
0.72448438 0.058333647 0.38282815
0.72448438 0.058333647 0.38282815
0.72448438 0.058333647 0.38282815
0.72448438 0.058333647 0.38282815
0.72448438 0.058333647 0.38282815
0.72448438 0.058333647 0.38282815
0.72448438 0.058333647 0.38282815
0.72448438 0.058333647 0.38282815
0.72448438 0.058333647 0.38282815
0.72448438 0.058333647 0.38282815
0.72448438 0.058333647 0.38282815
0.72448438 0.058333647 0.38282815
0.72448438 0.058333647 0.38282815
0.72448438 0.058333647 0.38282815
0.72448438 0.058333647 0.38282815
0.72448438 0.058333647 0.38282815
0.72448438 0.058333647 0.38282815
0.72448438 0.058333647 0.38282815
0.72448438 0.058333647 0.38282815
0.72448438 0.058333647 0.38282815
0.72448438 0.058333647 0.38282815
0.72448438 0.058333647 0.38282815
0.72448438 0.058333647 0.38282815
0.72448438 0.058333647 0.38282815
0.72448438 0.058333647 0.38282815
0.72448438 0.058333647 0.38282815
0.72448438 0.058333647 0.38282815
0.72448438 0.058333647 0.38282815
0.72448438 0.058333647 0.38282815
0.72448438 0.058333647 0.38282815
0.72448438 0.058333647 0.38282815
0.72448438 0.058333647 0.38282815
0.72448438 0.058333647 0.38282815
0.72448438 0.058333647 0.38282815
0.72448438 0.058333647 0.38282815
0.72448438 0.058333647 0.38282815
0.72448438 0.058333647 0.38282815
0.72448438 0.058333647 0.38282815
0.72448438 0.058333647 0.38282815
0.72448438 0.058333647 0.38282815
0.72448438 0.058333647 0.38282815
0.72448438 0.058333647 0.38282815
0.72448438 0.058333647 0.38282815
0.72448438 0.058333647 0.38282815
0.72448438 0.058333647 0.38282815
0.72448438 0.058333647 0.38282815
0.72448438 0.058333647 0.38282815
0.72448438 0.058333647 0.38282815
0.72448438 0.058333647 0.38282815
0.72448438 0.058333647 0.38282815
0.72448438 0.058333647 0.38282815
0.72448438 0.058333647 0.38282815
0.72448438 0.058333647 0.38282815
0.72448438 0.058333647 0.38282815
0.72448438 0.058333647 0.38282815
0.72448438 0.058333647 0.38282815
0.72448438 0.058333647 0.38282815
0.72448438 0.058333647 0.38282815
0.98594773 0.17707302 -0.0075473925
0.985991 0.17633657 -0.007538721
0.98603433 0.17560016 -0.0075300494
0.98607767 0.17486373 -0.0075213779
0.986121 0.1741273 -0.0075127063
0.9855991 0.17314236 -0.0066609713
0.98564231 0.17240752 -0.0066523189
0.98568559 0.17167267 -0.0066436655
0.9857288 0.17093784 -0.006635013
0.98577201 0.170203 -0.0066263601
0.98581523 0.16946816 -0.0066177072
0.9858585 0.16873333 -0.0066090543
0.98590171 0.16799849 -0.0066004018
0.98594493 0.16726366 -0.0065917489
0.98598814 0.16652881 -0.006583096
0.98603141 0.16579397 -0.0065744431
0.98607463 0.16505913 -0.0065657902
0.98611784 0.1643243 -0.0065571377
0.98616105 0.16358945 -0.0065484848
0.98620433 0.16285463 -0.0065398319
0.98568094 0.16189514 -0.005688421
0.98572409 0.16116188 -0.0056797871
0.98576719 0.16042864 -0.0056711528
0.98581034 0.15969539 -0.005662519
0.98585349 0.15896215 -0.0056538847
0.98589659 0.15822889 -0.0056452504
0.9853726 0.15728053 -0.0047939462
0.98541564 0.15654889 -0.004785331
0.98545867 0.15581723 -0.0047767158
0.98493427 0.15487525 -0.0039255107
0.98497725 0.15414518 -0.0039169141
0.98502016 0.15341511 -0.0039083175
0.98506314 0.15268503 -0.003899721
0.98453826 0.15175101 -0.0030486097
0.98458111 0.15102252 -0.0030400318
0.98462397 0.15029407 -0.003031454
0.98466682 0.14956558 -0.0030228761
0.98470968 0.1488371 -0.0030142982
0.98475254 0.14810863 -0.0030057202
0.98479539 0.14738014 -0.0029971423
0.9854067 0.14684451 -0.0038309479
0.98544967 0.14611444 -0.0038223513
0.98549259 0.14538437 -0.0038137545
0.98553556 0.1446543 -0.003805158
0.98557848 0.14392424 -0.0037965614
0.98562145 0.14319417 -0.0037879646
0.98566437 0.1424641 -0.003779368
0.98627645 0.14191574 -0.0046130237
0.98631948 0.14118408 -0.0046044085
0.98636252 0.14045241 -0.0045957933
0.98640555 0.13972077 -0.0045871777
0.98644859 0.13898911 -0.0045785625
0.98649162 0.13825744 -0.0045699468
0.98653466 0.1375258 -0.0045613316
0.98657769 0.13679413 -0.0045527164
0.98662078 0.13606247 -0.0045441007
0.98666382 0.13533083 -0.0045354855
0.98670685 0.13459916 -0.0045268703
0.98674989 0.1338675 -0.0045182551
0.98679292 0.13313584 -0.0045096395
0.98683596 0.13240419 -0.0045010243
0.98687899 0.13167253 -0.0044924086
0.98692203 0.13094087 -0.0044837934
0.98696506 0.13020922 -0.0044751782
0.98643744 0.1293229 -0.0036246288
0.98648036 0.12859283 -0.0036160322
0.98652333 0.12786277 -0.0036074356
0.98656625 0.1271327 -0.0035988388
0.98660922 0.12640263 -0.0035902422
0.98665214 0.12567256 -0.0035816457
0.98669511 0.1249425 -0.0035730489
0.98616672 0.12406891 -0.0027226496
0.98620957 0.12334044 -0.0027140717
0.98625243 0.12261195 -0.0027054937
0.98629528 0.12188347 -0.0026969158
0.98633814 0.121155 -0.0026883378
0.98638093 0.12042652 -0.0026797599
0.98642379 0.11969805 -0.0026711822
0.98646665 0.11896957 -0.0026626042
0.9865095 0.11824109 -0.0026540263
0.98655236 0.11751262 -0.0026454483
0.98716754 0.11691176 -0.0034784861
0.98721045 0.11618169 -0.0034698893
0.98725343 0.11545163 -0.0034612927
0.98729634 0.11472156 -0.0034526961
0.98733932 0.11399149 -0.0034440996
0.98738223 0.11326143 -0.003435503
0.98742521 0.11253136 -0.0034269062
0.9880411 0.11191779 -0.004259794
0.98808414 0.11118612 -0.0042511788
0.98812717 0.11045446 -0.0042425632
0.98817021 0.10972281 -0.004233948
0.98821324 0.10899115 -0.0042253328
0.98882973 0.10836803 -0.0050581326
0.98887283 0.10763478 -0.0050494988
0.98891598 0.10690153 -0.0050408645
0.98953283 0.10627205 -0.0058735651
0.98957604 0.10553721 -0.0058649122
0.99005157 0.097453982 -0.005769731
0.99009478 0.096719146 -0.0057610786
0.98956299 0.095902815 -0.0049113533
0.98960614 0.095169567 -0.0049027191
0.98964924 0.094436318 -0.0048940848
0.98969239 0.093703069 -0.0048854509
0.98916012 0.092894688 -0.0040357946
0.98920316 0.092163026 -0.0040271794
0.98924619 0.091431372 -0.0040185642
0.98928928 0.090699717 -0.0040099486
0.98933232 0.089968055 -0.0040013334
0.98937535 0.089236401 -0.0039927182
0.98941839 0.088504739 -0.0039841025
0.98946142 0.087773085 -0.0039754873
0.98950446 0.08704143 -0.0039668721
0.99012375 0.086370587 -0.0047991099
0.99016684 0.085637338 -0.0047904761
0.99021 0.084904097 -0.0047818418
0.99025315 0.084170841 -0.0047732079
