# .PCD v0.7 - Point Cloud Data file format
VERSION 0.7
FIELDS x y z
SIZE 4 4 4
TYPE F F F
COUNT 1 1 1
WIDTH 1408
HEIGHT 1
VIEWPOINT 0 0 0 1 0 0 0
POINTS 1408
DATA ascii
0.71250665 0.21920042 0.0069694547
0.71256381 0.21845621 0.0069323806
0.71262103 0.21771201 0.0068953075
0.71267825 0.21696781 0.0068582338
0.71273541 0.21622361 0.0068211602
0.71279263 0.21547942 0.006784087
0.71284986 0.21473522 0.006747013
0.71290708 0.21399102 0.0067099393
0.71296424 0.21324682 0.0066728657
0.7130087 0.21226281 0.0076380195
0.7130658 0.21152018 0.0076010246
0.71312284 0.21077757 0.0075640301
0.71317995 0.21003497 0.0075270357
0.71322381 0.20905887 0.0084926141
0.71328074 0.20831785 0.0084556993
0.71333772 0.20757681 0.0084187835
0.71338105 0.20660709 0.0093846498
0.71343791 0.20586763 0.0093478132
0.71349472 0.20512821 0.0093109766
0.71353763 0.2041648 0.010277158
0.71359432 0.20342696 0.0102404
0.71365106 0.20268911 0.010203643
0.71370775 0.20195125 0.010166885
0.71376449 0.2012134 0.010130128
0.71382117 0.20047556 0.01009337
0.71387792 0.1997377 0.010056613
0.7139346 0.19899985 0.010019856
0.71400625 0.19847326 0.0089794481
0.71406311 0.19773382 0.0089426124
0.71411991 0.19699438 0.0089057758
0.71417677 0.19625494 0.0088689392
0.71424901 0.19572042 0.007828136
0.71429044 0.19477607 0.008795266
0.71436298 0.19423838 0.0077543044
0.7144199 0.19349736 0.0077173896
0.71446097 0.19255775 0.0086847572
0.71451777 0.19181831 0.0086479206
0.71455848 0.19088349 0.0096155247
0.71459889 0.18995182 0.010583317
0.71463907 0.18902335 0.011551237
0.714679 0.18809801 0.012519345
0.71470207 0.18698683 0.014492369
0.71474141 0.18606946 0.015460842
0.70704412 0.10002415 0.47668648
0.71480232 0.18405993 0.018403288
0.71482366 0.18297096 0.020377418
0.71486181 0.18206944 0.021346712
0.71489966 0.18117109 0.022316135
0.71493727 0.18027593 0.023285715
0.71499228 0.1795603 0.023250064
0.7150473 0.17884466 0.023214413
0.71508443 0.17795584 0.024184341
0.71513933 0.17724179 0.024148768
0.71519423 0.17652774 0.024113197
0.71524912 0.17581369 0.024077624
0.71530396 0.17509964 0.024042053
0.71535885 0.17438559 0.024006482
0.71541375 0.17367154 0.023970909
0.71546865 0.17295749 0.023935338
0.71550471 0.17208296 0.024905946
0.71555942 0.17137049 0.024870453
0.7156142 0.17065804 0.024834961
0.71566898 0.16994557 0.024799468
0.71570438 0.16907896 0.025770502
0.71575904 0.16836809 0.025735088
0.7158137 0.16765721 0.025699675
0.71586829 0.16694634 0.025664261
0.71592295 0.16623546 0.025628848
0.71597761 0.16552459 0.025593434
0.71603227 0.16481371 0.025558021
0.71608686 0.16410284 0.025522606
0.71614152 0.16339196 0.025487192
0.71619618 0.16268107 0.025451779
0.71625084 0.1619702 0.025416365
0.71630543 0.16125932 0.025380952
0.71636009 0.16054845 0.025345538
0.71641475 0.15983757 0.025310125
0.71644831 0.15899478 0.026282314
0.71650285 0.15828548 0.02624698
0.71655738 0.1575762 0.026211645
0.71661186 0.15686691 0.026176311
0.71668792 0.1562832 0.025133057
0.71674258 0.15557232 0.025097644
0.71679723 0.15486145 0.025062229
0.71685183 0.15415056 0.025026817
0.71690649 0.15343969 0.024991402
0.71696115 0.15272881 0.02495599
0.7170158 0.15201794 0.024920575
0.71709281 0.15142153 0.02387666
0.71714759 0.15070908 0.023841167
0.71722496 0.15010791 0.022797044
0.71730256 0.14950357 0.021752734
0.71738046 0.14889605 0.020708295
0.71745855 0.14828536 0.019663697
0.71756005 0.14777645 0.017609967
0.70704412 0.10002415 0.47668648
0.70704412 0.10002415 0.47668648
0.70704412 0.10002415 0.47668648
0.71794724 0.14557874 0.010401171
0.71802729 0.14494267 0.0093552787
0.71813142 0.14439885 0.0072998083
0.71818817 0.14366101 0.0072630509
0.71826893 0.1430154 0.0062167151
0.71832579 0.14227596 0.0061798785
0.71840698 0.14162561 0.0051333047
0.7184639 0.14088458 0.0050963894
0.71852088 0.14014356 0.0050594741
0.71857786 0.13940254 0.0050225584
0.71863478 0.1386615 0.0049856431
0.71871668 0.13800164 0.0039385655
0.71877378 0.13725902 0.0039015708
0.71883082 0.13651641 0.0038645761
0.71888793 0.13577379 0.0038275816
0.71894503 0.13503119 0.0037905872
0.71900207 0.13428858 0.0037535927
0.71905917 0.13354596 0.003716598
0.71911627 0.13280335 0.0036796036
0.71917331 0.13206074 0.0036426091
0.71923041 0.13131814 0.0036056144
0.71928751 0.13057552 0.00356862
0.71934456 0.12983291 0.0035316253
0.71940166 0.12909029 0.0034946308
0.71945876 0.12834768 0.0034576363
0.7195158 0.12760507 0.0034206416
0.71954614 0.12680511 0.004394995
0.71960306 0.12606409 0.0043580798
0.71966004 0.12532306 0.004321164
0.71971697 0.12458204 0.0042842487
0.71980119 0.12389202 0.0032356691
0.71983093 0.12309999 0.0042104176
0.71988785 0.12235896 0.0041735023
0.71994483 0.12161794 0.0041365866
0.72000176 0.12087692 0.0040996713
0.72008663 0.12017895 0.0030506963
0.72014368 0.11943635 0.0030137019
0.72020078 0.11869373 0.0029767072
0.72025788 0.11795112 0.0029397127
0.72031492 0.11720851 0.0029027183
0.72037202 0.1164659 0.0028657236
0.72042906 0.11572328 0.0028287291
0.72048616 0.11498068 0.0027917346
0.72054327 0.11423806 0.00275474
0.72060031 0.11349545 0.0027177455
0.72065741 0.11275284 0.002680751
0.72071451 0.11201023 0.0026437563
0.72077155 0.11126762 0.0026067619
0.72082865 0.110525 0.0025697674
0.72088575 0.10978239 0.0025327727
0.7209428 0.10903978 0.0024957783
0.7209999 0.10829717 0.0024587838
0.72105694 0.10755455 0.0024217893
0.72111404 0.10681195 0.0023847946
0.72117114 0.10606933 0.0023477999
0.72122818 0.10532672 0.0023108055
0.72131574 0.10459385 0.0012601223
0.72140348 0.10385782 0.00020925024
0.70704412 0.10002415 0.47668648
0.70704412 0.10002415 0.47668648
0.70704412 0.10002415 0.47668648
0.70704412 0.10002415 0.47668648
0.70704412 0.10002415 0.47668648
0.70704412 0.10002415 0.47668648
0.70704412 0.10002415 0.47668648
0.70704412 0.10002415 0.47668648
0.70704412 0.10002415 0.47668648
0.70704412 0.10002415 0.47668648
0.70704412 0.10002415 0.47668648
0.70704412 0.10002415 0.47668648
0.70704412 0.10002415 0.47668648
0.70704412 0.10002415 0.47668648
0.70704412 0.10002415 0.47668648
0.70704412 0.10002415 0.47668648
0.70704412 0.10002415 0.47668648
0.70704412 0.10002415 0.47668648
0.70704412 0.10002415 0.47668648
0.70704412 0.10002415 0.47668648
0.70704412 0.10002415 0.47668648
0.70704412 0.10002415 0.47668648
0.70704412 0.10002415 0.47668648
0.70704412 0.10002415 0.47668648
0.70704412 0.10002415 0.47668648
0.70704412 0.10002415 0.47668648
0.70704412 0.10002415 0.47668648
0.70704412 0.10002415 0.47668648
0.70704412 0.10002415 0.47668648
0.70704412 0.10002415 0.47668648
0.70704412 0.10002415 0.47668648
0.70704412 0.10002415 0.47668648
0.70704412 0.10002415 0.47668648
0.70704412 0.10002415 0.47668648
0.70704412 0.10002415 0.47668648
0.70704412 0.10002415 0.47668648
0.70704412 0.10002415 0.47668648
0.70704412 0.10002415 0.47668648
0.70704412 0.10002415 0.47668648
0.70704412 0.10002415 0.47668648
0.70704412 0.10002415 0.47668648
0.70704412 0.10002415 0.47668648
0.70704412 0.10002415 0.47668648
0.70704412 0.10002415 0.47668648
0.70704412 0.10002415 0.47668648
0.70704412 0.10002415 0.47668648
0.70704412 0.10002415 0.47668648
0.70704412 0.10002415 0.47668648
0.70704412 0.10002415 0.47668648
0.70704412 0.10002415 0.47668648
0.70704412 0.10002415 0.47668648
0.70704412 0.10002415 0.47668648
0.70704412 0.10002415 0.47668648
0.70704412 0.10002415 0.47668648
0.70704412 0.10002415 0.47668648
0.70704412 0.10002415 0.47668648
0.70704412 0.10002415 0.47668648
0.70704412 0.10002415 0.47668648
0.70704412 0.10002415 0.47668648
0.70704412 0.10002415 0.47668648
0.70704412 0.10002415 0.47668648
0.70704412 0.10002415 0.47668648
0.70704412 0.10002415 0.47668648
0.70704412 0.10002415 0.47668648
0.70704412 0.10002415 0.47668648
0.70704412 0.10002415 0.47668648
0.70704412 0.10002415 0.47668648
0.70704412 0.10002415 0.47668648
0.70704412 0.10002415 0.47668648
0.70704412 0.10002415 0.47668648
0.70704412 0.10002415 0.47668648
0.70704412 0.10002415 0.47668648
0.70704412 0.10002415 0.47668648
0.70704412 0.10002415 0.47668648
0.70704412 0.10002415 0.47668648
0.70704412 0.10002415 0.47668648
0.70704412 0.10002415 0.47668648
0.71084386 0.23347586 0.0016977028
0.7109018 0.23272215 0.0016601549
0.71095973 0.23196843 0.001622607
0.71100932 0.23093852 0.0025852595
0.71106714 0.23018639 0.0025477903
0.71112496 0.22943425 0.0025103216
0.71117401 0.22841069 0.0034733212
0.71123171 0.22766013 0.0034359312
0.71128041 0.22664134 0.0043991371
0.71133798 0.22589238 0.004361826
0.71139556 0.22514343 0.0043245154
0.71144378 0.22413097 0.0052880673
0.71150124 0.22338359 0.0052508358
0.7115587 0.22263622 0.0052136038
0.71160644 0.22163011 0.0061774426
0.71166372 0.22088434 0.0061402903
0.71172106 0.22013855 0.0061031375
0.7117784 0.21939276 0.0060659852
0.71183574 0.21864697 0.0060288324
0.71189302 0.2179012 0.0059916796
0.71193993 0.21690619 0.0069561009
0.71199715 0.21616198 0.0069190273
0.71205431 0.2154178 0.0068819541
0.71211153 0.21467359 0.0068448805
0.71216875 0.2139294 0.0068078069
0.71222591 0.21318519 0.0067707333
0.71228313 0.212441 0.0067336597
0.71234035 0.2116968 0.006696586
0.71238613 0.21071608 0.0076616886
0.71244323 0.20997347 0.0076246941
0.71250027 0.20923086 0.0075876997
0.71255738 0.20848826 0.0075507052
0.71260256 0.20751545 0.0085162343
0.71265948 0.20677444 0.0084793186
0.71271646 0.20603341 0.0084424028
0.71276116 0.20506698 0.0094082169
0.71281797 0.20432754 0.0093713813
0.71287483 0.2035881 0.0093345437
0.71293163 0.20284866 0.009297708
0.71297574 0.20189016 0.010263918
0.71303242 0.20115231 0.010227161
0.71308917 0.20041445 0.010190403
0.71314585 0.1996766 0.010153647
0.7132026 0.19893874 0.010116888
0.71327269 0.19841203 0.0090766894
0.71332949 0.19767259 0.0090398528
0.71338636 0.19693315 0.0090030162
0.71344316 0.19619371 0.0089661796
0.71350002 0.19545428 0.0089293439
0.71357083 0.19491804 0.007888671
0.71361369 0.1939754 0.0088556707
0.71368474 0.193436 0.0078148404
0.71374172 0.19269496 0.0077779242
0.71378422 0.19175708 0.0087451609
0.71384102 0.19101764 0.0087083252
0.71389788 0.19027822 0.0086714886
0.71393985 0.18934669 0.0096390424
0.71398163 0.18841833 0.010606784
0.71402317 0.18749315 0.011574654
0.71404922 0.1863838 0.013547339
0.71407485 0.18528081 0.01552034
0.71411538 0.18436833 0.016488843
0.71415567 0.183459 0.017457532
0.71418005 0.18237188 0.019431325
0.71421975 0.1814705 0.020400379
0.71425915 0.1805723 0.021369623
0.7143144 0.17985348 0.021333814
0.7143535 0.17896004 0.022303265
0.71440864 0.17824282 0.022267535
0.71444732 0.17735413 0.023237223
0.71450233 0.1766385 0.023201572
0.71455735 0.17592286 0.023165921
0.71461236 0.17520723 0.023130272
0.71466738 0.17449158 0.023094621
0.71470535 0.17361242 0.024064813
0.71476024 0.17289837 0.024029242
0.71481514 0.17218432 0.023993669
0.71486998 0.17147027 0.023958098
0.71490741 0.17059904 0.024928655
0.71496212 0.16988657 0.024893163
0.7150169 0.1691741 0.02485767
0.71507168 0.16846165 0.024822177
0.71512645 0.16774918 0.024786685
0.71518117 0.16703673 0.024751192
0.71523595 0.16632426 0.024715699
0.71529073 0.1656118 0.024680207
0.71532696 0.16475485 0.025651505
0.71538162 0.16404396 0.025616091
0.71543628 0.16333309 0.025580678
0.71549094 0.16262221 0.025545264
0.71554554 0.16191134 0.025509851
0.71560019 0.16120046 0.025474437
0.71565485 0.16048959 0.025439024
0.71570945 0.15977871 0.025403609
0.71576411 0.15906784 0.025368197
0.71581876 0.15835695 0.025332782
0.71587342 0.15764607 0.02529737
0.71592802 0.1569352 0.025261955
0.71598268 0.15622433 0.025226543
0.71603733 0.15551345 0.025191128
0.71609193 0.15480258 0.025155716
0.71614659 0.1540917 0.025120301
0.71622169 0.15349993 0.024076832
0.71627647 0.15278746 0.02404134
0.71633118 0.15207501 0.024005847
0.71640676 0.15147687 0.022962091
0.71646166 0.15076283 0.022926519
0.71653759 0.15015994 0.021882495
0.71663493 0.14966346 0.019829843
0.71671146 0.14905265 0.018785425
0.71680969 0.14854506 0.016732192
0.70704412 0.10002415 0.47668648
0.71698588 0.14740762 0.013633619
0.71708542 0.14688258 0.011579514
0.7171855 0.14635119 0.0095250923
0.717264 0.14571498 0.0084794397
0.71736485 0.14517249 0.0064244657
0.71742171 0.14443305 0.0063876291
0.71750093 0.14378732 0.0053415019
0.71755791 0.14304629 0.0053045866
0.71761483 0.14230527 0.0052676708
0.71769458 0.1416532 0.0042211963
0.71775162 0.1409106 0.0041842018
0.71780872 0.14016798 0.0041472074
0.71786582 0.13942537 0.0041102129
0.71792287 0.13868275 0.0040732184
0.71797997 0.13794014 0.004036224
0.71803701 0.13719752 0.0039992291
0.71811771 0.13653275 0.0029521538
0.71817493 0.13578856 0.0029150802
0.71823215 0.13504437 0.0028780065
0.71828932 0.13430016 0.0028409329
0.71834654 0.13355596 0.0028038595
0.7183795 0.13274185 0.0037772621
0.7184366 0.13199925 0.0037402676
0.7184937 0.13125664 0.0037032729
0.71855074 0.13051403 0.0036662784
0.71860784 0.12977141 0.003629284
0.71866494 0.1290288 0.0035922893
0.71872199 0.12828618 0.0035552948
0.71877909 0.12754358 0.0035183004
0.71883613 0.12680097 0.0034813057
0.7188679 0.12600273 0.0044555301
0.71895033 0.12531574 0.0034073167
0.71900737 0.12457313 0.0033703221
0.71906447 0.12383052 0.0033333276
0.71912158 0.12308791 0.0032963331
0.71915269 0.1222976 0.0042709527
0.71920967 0.12155657 0.0042340374
0.71929282 0.12086007 0.0031853495
0.71934986 0.12011746 0.0031483548
0.71940696 0.11937485 0.0031113604
0.719464 0.11863223 0.0030743657
0.71952111 0.11788963 0.0030373712
0.71957821 0.11714701 0.0030003767
0.71963525 0.11640441 0.0029633823
0.71969235 0.11566179 0.0029263876
0.71974945 0.11491918 0.0028893931
0.71980649 0.11417657 0.0028523987
0.71986359 0.11343396 0.002815404
0.71992069 0.11269134 0.0027784095
0.71997774 0.11194874 0.0027414151
0.72003484 0.11120612 0.0027044204
0.72009194 0.11046351 0.0026674259
0.72014898 0.1097209 0.0026304312
0.72020608 0.10897829 0.0025934367
0.72026312 0.10823567 0.0025564423
0.72032022 0.10749307 0.0025194478
0.72037733 0.10675045 0.0024824531
0.72043437 0.10600784 0.0024454587
0.7205202 0.10527643 0.0013950631
0.72057742 0.10453223 0.0013579896
0.72066361 0.10379606 0.00030732635
0.70704412 0.10002415 0.47668648
0.70704412 0.10002415 0.47668648
0.70704412 0.10002415 0.47668648
0.70704412 0.10002415 0.47668648
0.70704412 0.10002415 0.47668648
0.70704412 0.10002415 0.47668648
0.70704412 0.10002415 0.47668648
0.70704412 0.10002415 0.47668648
0.70704412 0.10002415 0.47668648
0.70704412 0.10002415 0.47668648
0.70704412 0.10002415 0.47668648
0.70704412 0.10002415 0.47668648
0.70704412 0.10002415 0.47668648
0.70704412 0.10002415 0.47668648
0.70704412 0.10002415 0.47668648
0.70704412 0.10002415 0.47668648
0.70704412 0.10002415 0.47668648
0.70704412 0.10002415 0.47668648
0.70704412 0.10002415 0.47668648
0.70704412 0.10002415 0.47668648
0.70704412 0.10002415 0.47668648
0.70704412 0.10002415 0.47668648
0.70704412 0.10002415 0.47668648
0.70704412 0.10002415 0.47668648
0.70704412 0.10002415 0.47668648
0.70704412 0.10002415 0.47668648
0.70704412 0.10002415 0.47668648
0.70704412 0.10002415 0.47668648
0.70704412 0.10002415 0.47668648
0.70704412 0.10002415 0.47668648
0.70704412 0.10002415 0.47668648
0.70704412 0.10002415 0.47668648
0.70704412 0.10002415 0.47668648
0.70704412 0.10002415 0.47668648
0.70704412 0.10002415 0.47668648
0.70704412 0.10002415 0.47668648
0.70704412 0.10002415 0.47668648
0.70704412 0.10002415 0.47668648
0.70704412 0.10002415 0.47668648
0.70704412 0.10002415 0.47668648
0.70704412 0.10002415 0.47668648
0.70704412 0.10002415 0.47668648
0.70704412 0.10002415 0.47668648
0.70704412 0.10002415 0.47668648
0.70704412 0.10002415 0.47668648
0.70704412 0.10002415 0.47668648
0.70704412 0.10002415 0.47668648
0.70704412 0.10002415 0.47668648
0.70704412 0.10002415 0.47668648
0.70704412 0.10002415 0.47668648
0.70704412 0.10002415 0.47668648
0.70704412 0.10002415 0.47668648
0.70704412 0.10002415 0.47668648
0.70704412 0.10002415 0.47668648
0.70704412 0.10002415 0.47668648
0.70704412 0.10002415 0.47668648
0.70704412 0.10002415 0.47668648
0.70704412 0.10002415 0.47668648
0.70704412 0.10002415 0.47668648
0.70704412 0.10002415 0.47668648
0.70704412 0.10002415 0.47668648
0.70704412 0.10002415 0.47668648
0.70704412 0.10002415 0.47668648
0.70704412 0.10002415 0.47668648
0.70704412 0.10002415 0.47668648
0.70704412 0.10002415 0.47668648
0.70704412 0.10002415 0.47668648
0.70704412 0.10002415 0.47668648
0.70704412 0.10002415 0.47668648
0.70704412 0.10002415 0.47668648
0.70704412 0.10002415 0.47668648
0.70704412 0.10002415 0.47668648
0.70704412 0.10002415 0.47668648
0.70704412 0.10002415 0.47668648
0.70704412 0.10002415 0.47668648
0.70704412 0.10002415 0.47668648
0.70704412 0.10002415 0.47668648
0.71015406 0.23265973 0.0017592731
0.71021199 0.23190601 0.0017217252
0.71026993 0.2311523 0.0016841777
0.71032095 0.2301241 0.0026467007
0.71037877 0.22937198 0.002609232
0.71043658 0.22861984 0.0025717632
0.71048713 0.227598 0.0035346318
0.71054482 0.22684745 0.0034972425
0.71059495 0.22583036 0.0044603189
0.71065253 0.22508141 0.0044230083
0.71071011 0.22433245 0.0043856977
0.71075976 0.22332171 0.0053491197
0.71081722 0.22257434 0.0053118882
0.71087468 0.22182696 0.0052746562
0.71092385 0.22082257 0.0062383651
0.71098119 0.22007678 0.0062012128
0.71103853 0.21933101 0.00616406
0.71109581 0.21858522 0.0061269072
0.71115315 0.21783943 0.0060897549
0.71121049 0.21709365 0.0060526021
0.71126783 0.21634786 0.0060154493
0.71132511 0.21560208 0.005978297
0.71137321 0.21461198 0.0069427467
0.71143043 0.21386777 0.0069056731
0.71148765 0.21312357 0.0068685994
0.71154481 0.21237938 0.0068315263
0.71160203 0.21163517 0.0067944527
0.71165925 0.21089098 0.0067573786
0.71171641 0.21014677 0.006720305
0.71176356 0.20916937 0.0076853582
0.71182066 0.20842676 0.0076483637
0.7118777 0.20768414 0.0076113692
0.71192431 0.20671308 0.0085767675
0.7119813 0.20597205 0.0085398518
0.71203828 0.20523103 0.0085029369
0.71208441 0.20426631 0.0094686216
0.71214122 0.20352685 0.009431785
0.71219808 0.20278743 0.0093949493
0.71225488 0.20204799 0.0093581127
0.71231174 0.20130855 0.0093212761
0.71236861 0.20056911 0.0092844395
0.71241385 0.19961551 0.010250677
0.71248227 0.19909024 0.0092107663
0.71253908 0.1983508 0.0091739297
0.71259594 0.19761136 0.009137094
0.71265274 0.19687192 0.0091002574
0.71270961 0.19613248 0.0090634208
0.71276641 0.19539304 0.0090265842
0.71282327 0.19465362 0.0089897476
0.71289265 0.19411565 0.0079492042
0.71294957 0.19337463 0.0079122894
0.71300656 0.1926336 0.0078753727
0.71306348 0.19189258 0.0078384578
0.71310747 0.19095641 0.0088055655
0.71316427 0.19021699 0.0087687289
0.71322113 0.18947755 0.0087318933
0.71326458 0.18854773 0.0096993158
0.7133078 0.18762109 0.010666929
0.71335077 0.18669763 0.011634668
0.71339351 0.18577734 0.012602597
0.70704412 0.10002415 0.47668648
0.7134642 0.18376383 0.015543553
0.7135061 0.18285465 0.016512005
0.71353352 0.18176939 0.018485459
0.71357477 0.18086813 0.019454336
0.71361578 0.17997006 0.020423342
0.71367115 0.17924966 0.020387452
0.7137118 0.17835633 0.021356724
0.71376705 0.17763753 0.021320917
0.71380734 0.17674898 0.022290394
0.71386248 0.17603175 0.022254664
0.71391761 0.17531453 0.022218935
0.71395743 0.17443232 0.023188731
0.71401238 0.17371669 0.02315308
0.7140674 0.17300105 0.023117429
0.71410674 0.17212519 0.024087571
0.71416163 0.17141114 0.024052
0.71421647 0.17069709 0.024016427
0.71427137 0.16998303 0.023980856
0.71432626 0.169269 0.023945283
0.71436483 0.16840266 0.02491587
0.7144196 0.16769019 0.024880378
0.71447438 0.16697772 0.024844885
0.71452916 0.16626526 0.024809392
0.71458387 0.16555279 0.024773899
0.71463865 0.16484034 0.024738407
0.71469343 0.16412787 0.024702914
0.7147482 0.16341542 0.024667421
0.71480292 0.16270295 0.024631929
0.7148577 0.16199048 0.024596436
0.71491247 0.16127802 0.024560943
0.71496725 0.16056556 0.024525451
0.71502197 0.1598531 0.02448996
0.71507674 0.15914063 0.024454467
0.71513152 0.15842816 0.024418972
0.7151863 0.15771571 0.024383482
0.71524101 0.15700324 0.024347989
0.71529579 0.15629078 0.024312496
0.71535057 0.15557832 0.024277003
0.71540534 0.15486586 0.024241511
0.71546012 0.15415339 0.024206018
0.71551484 0.15344094 0.024170525
0.71558863 0.15284584 0.023127135
0.71564347 0.1521318 0.023091564
0.71571761 0.15153196 0.022047907
0.71579194 0.15092894 0.021004124
0.71586657 0.15032275 0.019960182
0.71596104 0.14982283 0.017907759
0.7160362 0.14920871 0.016863391
0.71613151 0.14869769 0.014810415
0.71622729 0.14818032 0.012757152
0.71632361 0.1476566 0.010703544
0.71642035 0.14712654 0.0086496202
0.7164973 0.1464902 0.0076041445
0.71657443 0.1458507 0.0065585426
0.71665186 0.14520802 0.0055127819
0.71670878 0.14446698 0.0054758661
0.71676576 0.14372596 0.0054389508
0.71684366 0.14307693 0.0043928442
0.71690077 0.14233431 0.0043558497
0.71695781 0.14159171 0.0043188552
0.71703619 0.14093633 0.0032724617
0.71709341 0.14019214 0.0032353881
0.71715063 0.13944793 0.0031983145
0.71720779 0.13870373 0.0031612408
0.71726501 0.13795954 0.0031241672
0.71732223 0.13721533 0.0030870936
0.71737939 0.13647114 0.0030500202
0.71743661 0.13572694 0.0030129466
0.71749383 0.13498273 0.002975873
0.71755105 0.13423854 0.0029387993
0.71760821 0.13349435 0.0029017257
0.71764278 0.13268037 0.0038749205
0.71769989 0.13193776 0.0038379261
0.71775693 0.13119514 0.0038009314
0.71781403 0.13045253 0.0037639369
0.71787107 0.12970991 0.0037269425
0.71792817 0.12896731 0.0036899478
0.71798527 0.1282247 0.0036529533
0.71804231 0.12748209 0.0036159588
0.71809942 0.12673947 0.0035789642
0.71815652 0.12599686 0.0035419697
0.71821356 0.12525424 0.0035049752
0.71827066 0.12451164 0.0034679805
0.71832776 0.12376903 0.0034309861
0.7183848 0.12302642 0.0033939916
0.7184419 0.1222838 0.0033569969
0.718499 0.12154119 0.0033200025
0.71855605 0.12079858 0.003283008
0.71861315 0.12005597 0.0032460133
0.71867019 0.11931336 0.0032090188
0.71872729 0.11857074 0.0031720244
0.71878439 0.11782813 0.0031350297
0.71881622 0.11704907 0.0041099931
0.71889853 0.11634291 0.0030610408
0.71895564 0.1156003 0.0030240461
0.71901268 0.11485769 0.0029870516
0.71906978 0.11411507 0.0029500572
0.71912688 0.11337246 0.0029130625
0.71918392 0.11262985 0.002876068
0.71924102 0.11188724 0.0028390735
0.71929806 0.11114463 0.0028020788
0.71935517 0.11040202 0.0027650844
0.71941227 0.1096594 0.0027280899
0.71946931 0.1089168 0.0026910952
0.71952641 0.10817418 0.0026541008
0.71958351 0.10743157 0.0026171063
0.71964055 0.10668896 0.0025801116
0.71972471 0.105959 0.001530003
0.71978188 0.1052148 0.0014929295
0.71986639 0.10448009 0.00044255418
0.70704412 0.10002415 0.47668648
0.70704412 0.10002415 0.47668648
0.70704412 0.10002415 0.47668648
0.70704412 0.10002415 0.47668648
0.70704412 0.10002415 0.47668648
0.70704412 0.10002415 0.47668648
0.70704412 0.10002415 0.47668648
0.70704412 0.10002415 0.47668648
0.70704412 0.10002415 0.47668648
0.70704412 0.10002415 0.47668648
0.70704412 0.10002415 0.47668648
0.70704412 0.10002415 0.47668648
0.70704412 0.10002415 0.47668648
0.70704412 0.10002415 0.47668648
0.70704412 0.10002415 0.47668648
0.70704412 0.10002415 0.47668648
0.70704412 0.10002415 0.47668648
0.70704412 0.10002415 0.47668648
0.70704412 0.10002415 0.47668648
0.70704412 0.10002415 0.47668648
0.70704412 0.10002415 0.47668648
0.70704412 0.10002415 0.47668648
0.70704412 0.10002415 0.47668648
0.70704412 0.10002415 0.47668648
0.70704412 0.10002415 0.47668648
0.70704412 0.10002415 0.47668648
0.70704412 0.10002415 0.47668648
0.70704412 0.10002415 0.47668648
0.70704412 0.10002415 0.47668648
0.70704412 0.10002415 0.47668648
0.70704412 0.10002415 0.47668648
0.70704412 0.10002415 0.47668648
0.70704412 0.10002415 0.47668648
0.70704412 0.10002415 0.47668648
0.70704412 0.10002415 0.47668648
0.70704412 0.10002415 0.47668648
0.70704412 0.10002415 0.47668648
0.70704412 0.10002415 0.47668648
0.70704412 0.10002415 0.47668648
0.70704412 0.10002415 0.47668648
0.70704412 0.10002415 0.47668648
0.70704412 0.10002415 0.47668648
0.70704412 0.10002415 0.47668648
0.70704412 0.10002415 0.47668648
0.70704412 0.10002415 0.47668648
0.70704412 0.10002415 0.47668648
0.70704412 0.10002415 0.47668648
0.70704412 0.10002415 0.47668648
0.70704412 0.10002415 0.47668648
0.70704412 0.10002415 0.47668648
0.70704412 0.10002415 0.47668648
0.70704412 0.10002415 0.47668648
0.70704412 0.10002415 0.47668648
0.70704412 0.10002415 0.47668648
0.70704412 0.10002415 0.47668648
0.70704412 0.10002415 0.47668648
0.70704412 0.10002415 0.47668648
0.70704412 0.10002415 0.47668648
0.70704412 0.10002415 0.47668648
0.70704412 0.10002415 0.47668648
0.70704412 0.10002415 0.47668648
0.70704412 0.10002415 0.47668648
0.70704412 0.10002415 0.47668648
0.70704412 0.10002415 0.47668648
0.70704412 0.10002415 0.47668648
0.70704412 0.10002415 0.47668648
0.70704412 0.10002415 0.47668648
0.70704412 0.10002415 0.47668648
0.70704412 0.10002415 0.47668648
0.70704412 0.10002415 0.47668648
0.70704412 0.10002415 0.47668648
0.70704412 0.10002415 0.47668648
0.70704412 0.10002415 0.47668648
0.70704412 0.10002415 0.47668648
0.70704412 0.10002415 0.47668648
0.70704412 0.10002415 0.47668648
0.70704412 0.10002415 0.47668648
0.70946425 0.23184361 0.0018208453
0.70952219 0.23108989 0.0017832979
0.70958012 0.23033616 0.0017457495
0.70963806 0.22958244 0.0017082016
0.70969039 0.22855756 0.0026706746
0.70974821 0.22780544 0.0026332056
0.70980018 0.2267853 0.003595945
0.70985788 0.22603475 0.0035585549
0.70991558 0.2252842 0.0035211651
0.70996708 0.22427043 0.0044841915
0.71002465 0.22352147 0.0044468804
0.7100758 0.22251245 0.005410173
0.71013319 0.22176507 0.005372941
0.71019065 0.2210177 0.0053357095
0.71024811 0.22027034 0.0052984776
0.71030557 0.21952297 0.0052612461
0.71035594 0.21852346 0.0062249834
0.71041328 0.21777768 0.0061878311
0.71047062 0.2170319 0.0061506783
0.7105279 0.21628611 0.0061135255
0.71058524 0.21554032 0.0060763732
0.71064258 0.21479453 0.0060392204
0.71069992 0.21404876 0.0060020681
0.7107572 0.21330297 0.0059649153
0.71081454 0.21255718 0.0059277629
0.71086371 0.21157356 0.0068923198
0.71092093 0.21082935 0.0068552461
0.71097815 0.21008515 0.0068181725
0.71103531 0.20934094 0.0067810989
0.71109253 0.20859675 0.0067440253
0.71114099 0.20762265 0.0077090277
0.71119803 0.20688005 0.0076720333
0.71125513 0.20613742 0.0076350383
0.71130311 0.20516966 0.0086003868
0.71136004 0.20442863 0.0085634701
0.71141702 0.20368761 0.0085265553
0.71146446 0.2027262 0.0094921896
0.71152133 0.20198676 0.009455353
0.71157813 0.20124732 0.0094185164
0.71163499 0.20050788 0.0093816807
0.71169186 0.19976844 0.0093448441
0.71174866 0.19902901 0.0093080075
0.71180552 0.19828956 0.0092711709
0.71186233 0.19755013 0.0092343353
0.71191919 0.19681069 0.0091974977
0.71197599 0.19607125 0.0091606621
0.71203285 0.19533181 0.0091238255
0.71208966 0.19459239 0.0090869889
0.71215749 0.19405429 0.0080466541
0.71221441 0.19331327 0.0080097383
0.71227139 0.19257224 0.0079728225
0.71232831 0.19183122 0.0079359077
0.7123853 0.19109018 0.0078989919
0.71244228 0.19034916 0.0078620762
0.71248752 0.18941632 0.0088291336
0.71254438 0.18867686 0.008792297
0.71260118 0.18793744 0.0087554613
0.71264601 0.18701093 0.0097228345
0.71269053 0.18608759 0.010690396
0.71273482 0.18516743 0.011658086
0.71277887 0.18425044 0.012625963
0.71281016 0.18315592 0.014598525
0.71285361 0.18224686 0.015566768
0.71289682 0.18134099 0.016535169
0.71292686 0.18026233 0.018508522
0.71296948 0.17936438 0.019477347
0.7130118 0.17846961 0.020446302
0.71306717 0.17774922 0.020410415
0.7131092 0.1768592 0.021379635
0.71316445 0.17614038 0.021343827
0.7132197 0.17542158 0.021308018
0.71326119 0.17453791 0.022277527
0.71331632 0.17382069 0.022241795
0.71335745 0.17294179 0.023211541
0.71341246 0.17222616 0.02317589
0.71346742 0.17151052 0.02314024
0.71350807 0.17063797 0.02411033
0.71356297 0.1699239 0.024074759
0.71361786 0.16920987 0.024039187
0.71367276 0.1684958 0.024003616
0.71372765 0.16778176 0.023968043
0.71378249 0.16706771 0.023932472
0.71383739 0.16635366 0.023896901
0.71389228 0.16563961 0.023861328
0.7139318 0.16478135 0.024832102
0.71398658 0.16406888 0.024796609
0.71404135 0.16335641 0.024761116
0.71409613 0.16264395 0.024725623
0.71415091 0.16193148 0.024690131
0.71420562 0.16121903 0.024654638
0.7142604 0.16050656 0.024619145
0.71431518 0.15979411 0.024583653
0.71436995 0.15908164 0.02454816
0.71442467 0.15836917 0.024512667
0.71447945 0.15765671 0.024477175
0.71453422 0.15694425 0.024441682
0.714589 0.15623179 0.024406189
0.71464372 0.15551932 0.024370696
0.71471554 0.15492886 0.023327753
0.71477044 0.15421481 0.023292182
0.71484262 0.1536196 0.022248972
0.71489763 0.15290397 0.022213321
0.71497017 0.15230399 0.021169903
0.71502531 0.15158677 0.021134173
0.7150982 0.15098204 0.020090519
0.71518922 0.15048504 0.018038671
0.71528077 0.14998169 0.015986508
0.7153728 0.14947198 0.013934028
0.71544707 0.1488498 0.012889504
0.71553993 0.14832899 0.010836472
0.71563333 0.14780185 0.0087831216
0.71570855 0.14716695 0.0077379351
0.71578401 0.1465289 0.00669262
0.71585971 0.14588767 0.0056471471
0.71591669 0.14514665 0.0056102313
0.71599275 0.14450066 0.0045644916
0.71604985 0.14375804 0.0045274971
0.71612626 0.1431073 0.0034815497
0.71618348 0.1423631 0.0034444761
0.7162407 0.14161889 0.0034074024
0.71629792 0.1408747 0.003370329
0.71635509 0.1401305 0.0033332554
0.71643227 0.13947023 0.0022868041
0.71648961 0.13872445 0.0022496516
0.71654689 0.13797866 0.0022124988
0.71660423 0.13723288 0.0021753462
0.71666157 0.1364871 0.0021381937
0.71669829 0.13566531 0.0031108139
0.71675551 0.13492112 0.0030737403
0.71681273 0.13417691 0.0030366667
0.71686989 0.13343272 0.002999593
0.71690607 0.13261887 0.0039725793
0.71696311 0.13187626 0.0039355843
0.71702021 0.13113365 0.0038985901
0.71707726 0.13039103 0.0038615954
0.71713436 0.12964843 0.0038246009
0.71719146 0.12890582 0.0037876065
0.7172485 0.1281632 0.0037506118
0.7173056 0.12742059 0.0037136173
0.7173627 0.12667798 0.0036766229
0.71741974 0.12593538 0.0036396282
0.71747684 0.12519276 0.0036026337
0.71753395 0.12445015 0.0035656393
0.71759099 0.12370753 0.0035286446
0.71764809 0.12296492 0.0034916501
0.71770513 0.12222231 0.0034546556
0.71776223 0.1214797 0.0034176609
0.71781933 0.12073708 0.0033806665
0.71787637 0.11999448 0.003343672
0.71793348 0.11925186 0.0033066773
0.71799058 0.11850925 0.0032696829
0.71804762 0.11776664 0.0032326882
0.71810472 0.11702403 0.0031956937
0.71816182 0.11628142 0.0031586993
0.71821886 0.11553881 0.0031217046
0.71827596 0.11479619 0.0030847101
0.71833307 0.11405358 0.0030477156
0.71839011 0.11331097 0.0030107212
0.71844721 0.11256836 0.0029737265
0.71850425 0.11182575 0.002936732
0.71856135 0.11108314 0.0028997376
0.71861845 0.11034052 0.0028627429
0.71867549 0.10959791 0.0028257484
0.7187326 0.1088553 0.0027887537
0.7187897 0.10811269 0.0027517593
0.71887195 0.10738578 0.0017020176
0.71892917 0.10664158 0.001664944
0.71898639 0.10589737 0.0016278704
0.71906918 0.10516411 0.00057778292
0.70704412 0.10002415 0.47668648
0.70704412 0.10002415 0.47668648
0.70704412 0.10002415 0.47668648
0.70704412 0.10002415 0.47668648
0.70704412 0.10002415 0.47668648
0.70704412 0.10002415 0.47668648
0.70704412 0.10002415 0.47668648
0.70704412 0.10002415 0.47668648
0.70704412 0.10002415 0.47668648
0.70704412 0.10002415 0.47668648
0.70704412 0.10002415 0.47668648
0.70704412 0.10002415 0.47668648
0.70704412 0.10002415 0.47668648
0.70704412 0.10002415 0.47668648
0.70704412 0.10002415 0.47668648
0.70704412 0.10002415 0.47668648
0.70704412 0.10002415 0.47668648
0.70704412 0.10002415 0.47668648
0.70704412 0.10002415 0.47668648
0.70704412 0.10002415 0.47668648
0.70704412 0.10002415 0.47668648
0.70704412 0.10002415 0.47668648
0.70704412 0.10002415 0.47668648
0.70704412 0.10002415 0.47668648
0.70704412 0.10002415 0.47668648
0.70704412 0.10002415 0.47668648
0.70704412 0.10002415 0.47668648
0.70704412 0.10002415 0.47668648
0.70704412 0.10002415 0.47668648
0.70704412 0.10002415 0.47668648
0.70704412 0.10002415 0.47668648
0.70704412 0.10002415 0.47668648
0.70704412 0.10002415 0.47668648
0.70704412 0.10002415 0.47668648
0.70704412 0.10002415 0.47668648
0.70704412 0.10002415 0.47668648
0.70704412 0.10002415 0.47668648
0.70704412 0.10002415 0.47668648
0.70704412 0.10002415 0.47668648
0.70704412 0.10002415 0.47668648
0.70704412 0.10002415 0.47668648
0.70704412 0.10002415 0.47668648
0.70704412 0.10002415 0.47668648
0.70704412 0.10002415 0.47668648
0.70704412 0.10002415 0.47668648
0.70704412 0.10002415 0.47668648
0.70704412 0.10002415 0.47668648
0.70704412 0.10002415 0.47668648
0.70704412 0.10002415 0.47668648
0.70704412 0.10002415 0.47668648
0.70704412 0.10002415 0.47668648
0.70704412 0.10002415 0.47668648
0.70704412 0.10002415 0.47668648
0.70704412 0.10002415 0.47668648
0.70704412 0.10002415 0.47668648
0.70704412 0.10002415 0.47668648
0.70704412 0.10002415 0.47668648
0.70704412 0.10002415 0.47668648
0.70704412 0.10002415 0.47668648
0.70704412 0.10002415 0.47668648
0.70704412 0.10002415 0.47668648
0.70704412 0.10002415 0.47668648
0.70704412 0.10002415 0.47668648
0.70704412 0.10002415 0.47668648
0.70704412 0.10002415 0.47668648
0.70704412 0.10002415 0.47668648
0.70704412 0.10002415 0.47668648
0.70704412 0.10002415 0.47668648
0.70704412 0.10002415 0.47668648
0.70704412 0.10002415 0.47668648
0.70704412 0.10002415 0.47668648
0.70704412 0.10002415 0.47668648
0.70704412 0.10002415 0.47668648
0.70704412 0.10002415 0.47668648
0.70704412 0.10002415 0.47668648
0.70704412 0.10002415 0.47668648
0.70866197 0.23281388 0.00095809594
0.70872003 0.23205857 0.000920469
0.70877445 0.23102747 0.001882417
0.70883238 0.23027375 0.0018448688
0.70889026 0.22952002 0.0018073209
0.70894819 0.22876632 0.0017697733
0.70900202 0.22774315 0.002732116
0.70905983 0.22699101 0.0026946473
0.70911324 0.22597261 0.0036572574
0.70917094 0.22522205 0.0036198676
0.70922863 0.22447151 0.003582478
0.70928162 0.22345945 0.0045453729
0.7093392 0.22271049 0.0045080627
0.70939672 0.22196153 0.0044707516
0.70944917 0.22095582 0.0054339943
0.70950663 0.22020844 0.0053967624
0.70956409 0.21946107 0.0053595309
0.70962155 0.2187137 0.0053222994
0.70967901 0.21796633 0.0052850679
0.70973641 0.21721895 0.005247836
0.70979387 0.21647158 0.0052106045
0.70984536 0.21547857 0.0061744493
0.7099027 0.21473278 0.0061372966
0.70995998 0.21398701 0.0061001442
0.71001732 0.21324122 0.0060629915
0.71007466 0.21249543 0.0060258387
0.710132 0.21174964 0.0059886859
0.71018928 0.21100385 0.0059515331
0.71023983 0.21002352 0.0069160396
0.71029699 0.20927933 0.006878966
0.71035421 0.20853513 0.0068418928
0.71041143 0.20779093 0.0068048192
0.71046865 0.20704675 0.0067677456
0.71051842 0.20607594 0.0077326968
0.71057546 0.20533332 0.0076957028
0.71063256 0.20459071 0.0076587079
0.71068186 0.20362625 0.0086240061
0.71073878 0.20288523 0.0085870903
0.71079576 0.20214419 0.0085501745
0.71085274 0.20140319 0.0085132597
0.71090138 0.20044665 0.009478922
0.71095824 0.19970721 0.0094420863
0.71101505 0.19896778 0.0094052497
0.71107191 0.19822833 0.0093684131
0.71112877 0.1974889 0.0093315765
0.71118557 0.19674946 0.0092947399
0.71124244 0.19601002 0.0092579033
0.71129924 0.19527058 0.0092210677
0.7113561 0.19453114 0.0091842311
0.71142232 0.19399293 0.0081441049
0.71147925 0.19325191 0.0081071891
0.71153623 0.19251087 0.0080702733
0.71159315 0.19176985 0.0080333576
0.71165013 0.19102882 0.0079964427
0.71170712 0.1902878 0.007959527
0.71176404 0.18954678 0.0079226112
0.71182102 0.18880574 0.0078856964
0.71186763 0.18787621 0.0088527026
0.71192443 0.18713677 0.008815866
0.71197069 0.18621197 0.0097831106
0.71202737 0.18547413 0.0097463531
0.71207327 0.1845541 0.010713863
0.71210796 0.18345666 0.01268585
0.7121532 0.18254456 0.013653726
0.71219826 0.18163563 0.01462179
0.71224302 0.1807299 0.015589982
0.7122761 0.17965308 0.017562997
0.71232027 0.17875527 0.018531583
0.7123642 0.17786063 0.01950036
0.71241969 0.17713864 0.019464392
0.71246326 0.17624876 0.020433376
0.71251863 0.17552836 0.020397488
0.71256179 0.17464325 0.021366738
0.71261704 0.17392443 0.021330928
0.71267229 0.17320563 0.021295119
0.71271503 0.17232686 0.022264656
0.71275747 0.17145126 0.023234351
0.71281248 0.17073563 0.0231987
0.71285456 0.16986477 0.024168661
0.71290946 0.16915073 0.02413309
0.71296436 0.16843668 0.024097519
0.71301925 0.16772263 0.024061946
0.71307409 0.16700858 0.024026375
0.71312898 0.16629453 0.023990802
0.71318388 0.16558048 0.023955232
0.71323878 0.16486643 0.023919661
0.71329367 0.16415238 0.023884088
0.71334851 0.16343834 0.023848517
0.7134034 0.16272429 0.023812944
0.7134583 0.16201024 0.023777373
0.71352756 0.16143236 0.02273524
0.71358258 0.16071671 0.022699589
0.71363759 0.16000108 0.02266394
0.71369261 0.15928544 0.022628289
0.71374756 0.1585698 0.022592638
0.71380258 0.15785417 0.022556987
0.71384251 0.15701188 0.023528371
0.71389735 0.15629783 0.0234928
0.71395224 0.15558378 0.023457227
0.71400714 0.15486974 0.023421656
0.71407765 0.15427598 0.022378733
0.71414834 0.15367906 0.021335682
0.71420348 0.15296182 0.021299953
0.71427459 0.15236014 0.020256665
0.71434587 0.15175527 0.019213188
0.71443367 0.15125959 0.017161837
0.70704412 0.10002415 0.47668648
0.71459424 0.15014 0.014066092
0.71468341 0.14962687 0.012013872
0.714773 0.1491074 0.009961335
0.71484631 0.14847714 0.0089166239
0.71491981 0.14784372 0.0078717256
0.7149936 0.14720711 0.0068266983
0.71506763 0.14656733 0.0057815132
0.71514189 0.14592439 0.0047361394
0.71519893 0.14518178 0.004699145
0.71525604 0.14443916 0.0046621501
0.71533078 0.14378987 0.0036164906
0.715388 0.14304568 0.003579417
0.71544516 0.14230147 0.0035423434
0.71552044 0.14164583 0.0024963382
0.71557772 0.14090005 0.0024591854
0.71563506 0.14015426 0.0024220329
0.7156924 0.13940848 0.0023848803
0.71574968 0.1386627 0.0023477275
0.71580702 0.13791691 0.002310575
0.71586436 0.13717112 0.0022734224
0.7159217 0.13642533 0.0022362696
0.71597898 0.13567956 0.0021991171
0.71601719 0.13485949 0.0031716076
0.71607441 0.13411529 0.003134534
0.71613163 0.1333711 0.0030974604
0.7161693 0.13255738 0.0040702377
0.7162264 0.13181476 0.0040332433
0.71628344 0.13107216 0.0039962484
0.71634054 0.13032955 0.0039592539
0.71639764 0.12958694 0.0039222594
0.71645468 0.12884432 0.003885265
0.71651179 0.12810171 0.0038482703
0.71656889 0.12735909 0.0038112758
0.71662593 0.12661649 0.0037742814
0.71668303 0.12587388 0.0037372867
0.71674013 0.12513126 0.0037002922
0.71679717 0.12438865 0.0036632977
0.71685427 0.12364604 0.003626303
0.71691132 0.12290343 0.0035893086
0.71696842 0.12216081 0.0035523141
0.71702552 0.12141821 0.0035153194
0.71708256 0.12067559 0.003478325
0.71713966 0.11993298 0.0034413305
0.71719676 0.11919037 0.0034043358
0.7172538 0.11844776 0.0033673414
0.71731091 0.11770514 0.0033303469
0.71736801 0.11696254 0.0032933522
0.71742505 0.11621992 0.0032563577
0.71748215 0.11547731 0.0032193633
0.71753925 0.1147347 0.0031823686
0.71759629 0.11399209 0.0031453741
0.71765339 0.11324948 0.0031083797
0.71771044 0.11250687 0.003071385
0.71779042 0.11178934 0.0020223265
0.71784765 0.11104514 0.0019852528
0.71788168 0.11027903 0.0029604014
0.71796209 0.10955674 0.0019111056
0.71799588 0.10879381 0.0028864124
0.71807647 0.10806835 0.0018369585
0.71813369 0.10732415 0.001799885
0.71819085 0.10657995 0.0017628113
0.71827197 0.10584814 0.0007130116
0.70704412 0.10002415 0.47668648
0.70704412 0.10002415 0.47668648
0.70704412 0.10002415 0.47668648
0.70704412 0.10002415 0.47668648
0.70704412 0.10002415 0.47668648
0.70704412 0.10002415 0.47668648
0.70704412 0.10002415 0.47668648
0.70704412 0.10002415 0.47668648
0.70704412 0.10002415 0.47668648
0.70704412 0.10002415 0.47668648
0.70704412 0.10002415 0.47668648
0.70704412 0.10002415 0.47668648
0.70704412 0.10002415 0.47668648
0.70704412 0.10002415 0.47668648
0.70704412 0.10002415 0.47668648
0.70704412 0.10002415 0.47668648
0.70704412 0.10002415 0.47668648
0.70704412 0.10002415 0.47668648
0.70704412 0.10002415 0.47668648
0.70704412 0.10002415 0.47668648
0.70704412 0.10002415 0.47668648
0.70704412 0.10002415 0.47668648
0.70704412 0.10002415 0.47668648
0.70704412 0.10002415 0.47668648
0.70704412 0.10002415 0.47668648
0.70704412 0.10002415 0.47668648
0.70704412 0.10002415 0.47668648
0.70704412 0.10002415 0.47668648
0.70704412 0.10002415 0.47668648
0.70704412 0.10002415 0.47668648
0.70704412 0.10002415 0.47668648
0.70704412 0.10002415 0.47668648
0.70704412 0.10002415 0.47668648
0.70704412 0.10002415 0.47668648
0.70704412 0.10002415 0.47668648
0.70704412 0.10002415 0.47668648
0.70704412 0.10002415 0.47668648
0.70704412 0.10002415 0.47668648
0.70704412 0.10002415 0.47668648
0.70704412 0.10002415 0.47668648
0.70704412 0.10002415 0.47668648
0.70704412 0.10002415 0.47668648
0.70704412 0.10002415 0.47668648
0.70704412 0.10002415 0.47668648
0.70704412 0.10002415 0.47668648
0.70704412 0.10002415 0.47668648
0.70704412 0.10002415 0.47668648
0.70704412 0.10002415 0.47668648
0.70704412 0.10002415 0.47668648
0.70704412 0.10002415 0.47668648
0.70704412 0.10002415 0.47668648
0.70704412 0.10002415 0.47668648
0.70704412 0.10002415 0.47668648
0.70704412 0.10002415 0.47668648
0.70704412 0.10002415 0.47668648
0.70704412 0.10002415 0.47668648
0.70704412 0.10002415 0.47668648
0.70704412 0.10002415 0.47668648
0.70704412 0.10002415 0.47668648
0.70704412 0.10002415 0.47668648
0.70704412 0.10002415 0.47668648
0.70704412 0.10002415 0.47668648
0.70704412 0.10002415 0.47668648
0.70704412 0.10002415 0.47668648
0.70704412 0.10002415 0.47668648
0.70704412 0.10002415 0.47668648
0.70704412 0.10002415 0.47668648
0.70704412 0.10002415 0.47668648
0.70704412 0.10002415 0.47668648
0.70704412 0.10002415 0.47668648
0.70704412 0.10002415 0.47668648
0.70704412 0.10002415 0.47668648
0.70704412 0.10002415 0.47668648
0.70704412 0.10002415 0.47668648
0.70704412 0.10002415 0.47668648
0.70704412 0.10002415 0.47668648
0.70797068 0.23199603 0.001019796
0.70802873 0.23124072 0.00098216929
0.70808458 0.23021133 0.0019439879
0.70814252 0.22945762 0.00190644
0.70820045 0.2287039 0.0018688925
0.70825839 0.22795017 0.0018313442
0.70831364 0.22692874 0.0027935577
0.70837146 0.2261766 0.0027560887
0.70842636 0.22515991 0.0037185682
0.70848405 0.22440936 0.0036811787
0.70854175 0.22365882 0.0036437886
0.70859617 0.22264847 0.0046065552
0.70865369 0.22189951 0.0045692441
0.70871127 0.22115056 0.0045319335
0.70876884 0.2204016 0.0044946233
0.70882261 0.21939918 0.0054578152
0.70888007 0.21865182 0.0054205833
0.70893753 0.21790445 0.0053833518
0.70899498 0.21715707 0.0053461199
0.70905244 0.2164097 0.0053088884
0.70910984 0.21566233 0.0052716569
0.7091673 0.21491495 0.005234425
0.70922476 0.21416758 0.0051971935
0.70928222 0.21342021 0.0051599615
0.70933479 0.21243368 0.0061239139
0.70939207 0.21168789 0.0060867611
0.70944941 0.2109421 0.0060496083
0.70950675 0.21019632 0.006012456
0.70956409 0.20945053 0.0059753032
0.70962137 0.20870475 0.0059381509
0.70967311 0.20772931 0.0069026863
0.70973033 0.20698512 0.0068656132
0.70978749 0.20624091 0.0068285391
0.70984471 0.20549671 0.0067914659
0.70989585 0.20452923 0.0077563664
0.70995289 0.2037866 0.0077193715
0.71000999 0.203044 0.0076823775
0.7100606 0.20208283 0.0086476235
0.71011758 0.20134182 0.0086107086
0.7101745 0.20060079 0.0085737929
0.71023148 0.19985977 0.0085368771
0.71028847 0.19911873 0.0084999613
0.71034539 0.19837771 0.0084630465
0.71039516 0.19742768 0.0094288168
0.71045202 0.19668823 0.0093919802
0.71050882 0.19594879 0.0093551436
0.71056569 0.19520935 0.009318307
0.71063018 0.19467258 0.0082784686
0.71068716 0.19393156 0.0082415529
0.71074408 0.19319054 0.008204638
0.71080106 0.19244951 0.0081677223
0.71085799 0.19170849 0.0081308065
0.71091497 0.19096747 0.0080938917
0.71097195 0.19022644 0.0080569759
0.71102887 0.18948542 0.0080200601
0.71108586 0.1887444 0.0079831444
0.71114278 0.18800336 0.0079462295
0.71119976 0.18726234 0.0079093138
0.71124768 0.1863361 0.0088762697
0.71130455 0.18559666 0.0088394331
0.71135211 0.18467517 0.0098066274
0.71140879 0.18393733 0.00976987
0.71144652 0.18284173 0.011741517
0.71149337 0.18192977 0.012709215
0.71153992 0.18102098 0.013677041
0.7115764 0.17994125 0.015649479
0.71162242 0.1790404 0.0166177
0.71166813 0.17814271 0.017586108
0.71171367 0.17724821 0.018554647
0.71176928 0.17652464 0.018518599
0.71182489 0.17580107 0.018482553
0.7118699 0.1749129 0.019451438
0.71192539 0.17419092 0.01941547
0.71197003 0.17330752 0.020384561
0.71201444 0.1724273 0.021353839
0.71206969 0.17170848 0.021318031
0.71212494 0.17098968 0.021282222
0.71216887 0.1701158 0.022251787
0.71222401 0.16939858 0.022216057
0.71226752 0.16852945 0.023185859
0.71232253 0.16781382 0.023150207
0.71237755 0.16709818 0.023114556
0.71243256 0.16638255 0.023078905
0.71248758 0.16566691 0.023043256
0.71254253 0.16495126 0.023007605
0.71260989 0.164378 0.021965949
0.71266502 0.16366078 0.021930218
0.71272016 0.16294356 0.021894488
0.71277529 0.16222633 0.021858759
0.71283036 0.16150911 0.02182303
0.7128855 0.16079189 0.021787299
0.71294063 0.16007467 0.02175157
0.71299577 0.15935744 0.02171584
0.7130509 0.15864022 0.021680109
0.71310604 0.157923 0.02164438
0.71316117 0.15720578 0.021608651
0.7132163 0.15648855 0.021572921
0.71327144 0.15577133 0.02153719
0.71332657 0.15505411 0.021501461
0.71339571 0.15445705 0.020458618
0.71346509 0.15385681 0.019415589
0.71353471 0.15325339 0.01837243
0.71360463 0.15264682 0.017329084
0.70704412 0.10002415 0.47668648
0.71374512 0.15142414 0.015241946
0.71383047 0.15091866 0.013190568
0.7139163 0.15040685 0.011138844
0.71398765 0.14978123 0.01009455
0.71405923 0.14915243 0.0090501262
0.71414632 0.14862476 0.0069976114
0.71421856 0.14798802 0.0059527927
0.71427548 0.147247 0.0059158774
0.71434808 0.14660551 0.0048707924
0.71442086 0.14596084 0.0038255786
0.71447808 0.14521664 0.0037885052
0.71453524 0.14447245 0.0037514316
0.71459246 0.14372824 0.003714358
0.71466589 0.14307564 0.0026687186
0.71472323 0.14232986 0.002631566
0.71478051 0.14158408 0.0025944132
0.71483785 0.1408383 0.0025572607
0.71489519 0.14009251 0.0025201081
0.71496934 0.13943039 0.0014740248
0.7150268 0.13868301 0.0014367931
0.71506715 0.13785516 0.0024086502
0.71512449 0.13710937 0.0023714975
0.71518183 0.13636358 0.0023343449
0.71523911 0.13561779 0.0022971923
0.71529645 0.134872 0.0022600396
0.71533608 0.13405366 0.0032324013
0.7153933 0.13330947 0.0031953277
0.71543258 0.13249588 0.0041678962
0.71548963 0.13175328 0.0041309018
0.71554673 0.13101067 0.0040939068
0.71560383 0.13026805 0.0040569124
0.71566087 0.12952544 0.0040199179
0.71571797 0.12878282 0.0039829235
0.71577507 0.12804021 0.003945929
0.71583211 0.12729761 0.0039089345
0.71588922 0.126555 0.0038719398
0.71594626 0.12581238 0.0038349451
0.71600336 0.12506977 0.0037979507
0.71606046 0.12432716 0.0037609562
0.7161175 0.12358455 0.0037239615
0.7161746 0.12284193 0.0036869671
0.7162317 0.12209933 0.0036499726
0.71628875 0.12135671 0.0036129779
0.71634585 0.1206141 0.0035759835
0.71640295 0.11987149 0.003538989
0.71645999 0.11912888 0.0035019943
0.71651709 0.11838626 0.0034649998
0.71657419 0.11764365 0.0034280054
0.71663123 0.11690104 0.0033910107
0.71668833 0.11615843 0.0033540162
0.71674538 0.11541582 0.0033170218
0.71680248 0.1146732 0.0032800271
0.71685958 0.1139306 0.0032430326
0.71691662 0.11318798 0.0032060381
0.71697372 0.11244537 0.0031690435
0.71705216 0.11172771 0.0021201938
0.71710932 0.11098351 0.0020831202
0.71716654 0.11023932 0.0020460465
0.71722376 0.10949512 0.0020089729
0.71728092 0.10875092 0.0019718993
0.71733814 0.10800672 0.0019348258
0.71741742 0.10727796 0.00088539213
0.71747476 0.10653217 0.00084823946
0.70704412 0.10002415 0.47668648
0.70704412 0.10002415 0.47668648
0.70704412 0.10002415 0.47668648
0.70704412 0.10002415 0.47668648
0.70704412 0.10002415 0.47668648
0.70704412 0.10002415 0.47668648
0.70704412 0.10002415 0.47668648
0.70704412 0.10002415 0.47668648
0.70704412 0.10002415 0.47668648
0.70704412 0.10002415 0.47668648
0.70704412 0.10002415 0.47668648
0.70704412 0.10002415 0.47668648
0.70704412 0.10002415 0.47668648
0.70704412 0.10002415 0.47668648
0.70704412 0.10002415 0.47668648
0.70704412 0.10002415 0.47668648
0.70704412 0.10002415 0.47668648
0.70704412 0.10002415 0.47668648
0.70704412 0.10002415 0.47668648
0.70704412 0.10002415 0.47668648
