# .PCD v0.7 - Point Cloud Data file format
VERSION 0.7
FIELDS x y z
SIZE 4 4 4
TYPE F F F
COUNT 1 1 1
WIDTH 1326
HEIGHT 1
VIEWPOINT 0 0 0 1 0 0 0
POINTS 1326
DATA ascii
0.96607977 -0.075183325 -0.011527615
0.89973503 -0.08714968 -0.013655952
0.88792205 -0.023540629 0.0021122119
0.73384464 -0.13534549 -0.01623174
0.73194265 -0.0046319314 -0.01575736
0.91221744 0.0068967049 0.024751229
0.93398976 0.0011943072 0.0046677333
0.85435808 0.056782603 0.015850514
0.85287619 0.044417225 0.024717228
0.93012065 0.0028395406 0.0066677872
0.91613936 0.026690142 0.021475907
0.93860126 -0.0017122773 0.0047889729
0.85782468 0.043080803 0.025191922
0.87400705 -0.099093623 -0.013647705
0.88426924 -0.1031079 -0.013504823
0.86464632 0.015048146 -0.013842877
0.86624795 -0.11537443 -0.01356674
0.7638256 -0.065209031 -0.015806895
0.8759262 -0.1012188 -0.013541688
0.90411764 0.050836947 0.021725928
0.91120452 -0.05916198 -0.013774733
0.88807166 -0.10521486 -0.013785079
0.8900916 -0.10568389 -0.013617333
0.86577505 0.041812647 -0.013623087
0.86849874 -0.11665753 -0.013874887
0.75357878 -0.062053606 -0.016216515
0.97478771 0.19466686 -0.0071799196
0.76574641 -0.065568514 -0.015716562
0.87810987 -0.10330892 -0.013614831
0.77006584 -0.067895569 -0.015580919
0.78766119 -0.073471963 -0.015613045
0.82018906 0.07053192 -0.00024751064
0.71717733 0.067184232 -0.012933872
0.94043785 -0.031805042 -0.0079513937
0.93801677 0.096907705 -0.009044664
0.75430858 -0.064651489 -0.015576798
0.76966351 -0.07006418 -0.015515005
0.78729403 -0.075078286 -0.015513758
0.77134836 -0.070951089 -0.015491216
0.70128506 -0.10276754 -0.086627007
0.76163018 -0.06876675 -0.01603801
0.76410258 -0.069379702 -0.015789855
0.83197254 0.16081452 -0.011946443
0.83634657 -0.093275823 -0.013189463
0.95229095 0.12258163 -0.011573592
0.95588446 -0.13156681 -0.012074904
0.76693338 -0.070740104 -0.015430886
0.95458949 0.12907732 -0.011779167
0.95776248 -0.13311493 -0.011898267
0.83241928 0.16701016 -0.011951966
0.83585334 -0.095250711 -0.013064479
0.94805056 0.11856727 -0.011617059
0.95267218 -0.13329627 -0.012053661
0.81439579 0.1487423 -0.012240897
0.81818974 -0.11120053 -0.013173326
0.9458648 0.12270036 -0.011738601
0.94949877 -0.13963363 -0.012369562
0.94577926 0.11434617 -0.011525091
0.94974828 -0.13123043 -0.012206008
0.95001358 0.11892036 -0.011946774
0.95401877 -0.13304584 -0.012101264
0.9522773 0.12705958 -0.011815146
0.95623273 -0.13450433 -0.011890979
0.87398976 -0.10721602 -0.013808392
0.95447165 0.12627603 -0.011631208
0.95849526 -0.1353384 -0.011894432
0.86652315 -0.021311298 0.0079795141
0.94436687 0.11292056 -0.011604575
0.94817996 -0.13335989 -0.012182205
0.95218801 0.13195673 -0.0120927
0.95572305 -0.13680261 -0.011924347
0.94226676 0.1268668 -0.011665579
0.94631308 -0.13307123 -0.011714161
0.94802922 0.12252764 -0.011623376
0.95184141 -0.13711865 -0.012204782
0.96011519 -0.13916826 -0.011560346
0.86745012 0.015592178 -0.013726402
0.87011468 -0.11113767 -0.013724362
0.96860141 0.055878118 -0.011436803
0.97014719 -0.074096821 -0.011655285
0.90395814 -0.14496052 -0.01211353
0.9243778 0.10292923 -0.012269056
0.92771983 -0.14938645 -0.012142208
0.82431334 0.16463473 -0.011879955
0.82767433 -0.10542905 -0.013199844
0.94474584 0.11621841 -0.011559455
0.94786918 -0.13698986 -0.012032299
0.95348746 0.13033789 -0.011919674
0.958193 -0.13902837 -0.011555773
0.94816643 0.11291604 -0.01222483
0.95173663 -0.13941561 -0.012090435
0.95029545 0.11232599 -0.012127702
0.95390779 -0.13915959 -0.011997085
0.86778468 -0.11120288 -0.013806038
0.94418949 0.12248515 -0.011953613
0.94801885 -0.13933548 -0.012465764
0.9574973 -0.14172579 -0.011562512
0.86402088 -0.11322167 -0.013632804
0.8607049 0.012915035 -0.013607011
0.86180872 -0.11311341 -0.013696795
0.94408959 0.12023103 -0.011788721
0.94786692 -0.14138645 -0.012018004
0.75175047 -0.079622105 -0.015673669
0.90858638 -0.14715384 -0.011319958
0.95216495 -0.14381912 -0.012108933
0.77999318 -0.089223772 -0.01573653
0.85584289 -0.11332154 -0.013776782
0.9476493 -0.14353827 -0.011684234
0.75443274 -0.082511432 -0.015543846
0.76977062 -0.08776582 -0.016492797
0.77231151 -0.087449878 -0.016051991
0.77750635 -0.089515202 -0.015580227
0.80438411 -0.098724842 -0.01542379
0.81415689 0.15653564 -0.012227992
0.8178792 -0.10296857 -0.013395641
0.70023179 -0.098076791 -0.0878838
0.70176882 -0.09819258 -0.087902345
0.77531666 -0.090927452 -0.015947465
0.70205134 -0.099425904 -0.086833589
0.95005196 0.10257608 -0.012373132
0.95376796 -0.14870711 -0.011892347
0.70012653 -0.10125963 -0.0866955
0.70207649 -0.10164373 -0.086705253
0.70333797 -0.10297654 -0.086648621
0.81796044 0.15237424 -0.012139894
0.82214081 -0.1092668 -0.013122222
0.77833295 -0.097838826 -0.016216464
0.94195122 0.04073815 0.00043324145
0.78569549 -0.10500804 -0.015753651
0.79193002 -0.10735281 -0.015720023
0.78931779 -0.10680878 -0.015708663
0.79270488 -0.1085918 -0.015660835
0.8413747 0.010624537 0.011450563
0.93384141 -0.15506852 -0.012257249
0.790066 -0.10946251 -0.015566909
0.81373525 0.048910573 -0.0023443894
0.89469951 -0.14183599 -0.011400379
0.79189128 -0.11038092 -0.015543599
0.78449386 -0.1073621 -0.015597239
0.78594053 -0.10899894 -0.015525999
0.78830922 -0.10931998 -0.015546302
0.90799195 -0.14750776 -0.012588438
0.75077283 0.1679575 -0.013085415
0.75176591 0.046657573 -0.012759193
0.82623905 -0.015604415 0.0010666366
0.81681168 -0.0090378057 0.00082375336
0.76596665 -0.10510892 -0.01616508
0.76401603 0.019932596 -0.015680101
0.81188941 0.054760743 -0.0042306124
0.88368219 0.014761366 -0.013557453
0.88594157 -0.11101844 -0.01408091
0.92050719 0.032727189 0.011630295
0.87880266 0.075783283 0.0005532073
0.87999594 -0.052929163 -0.00086069055
0.84622294 -0.029237876 0.0011058524
0.96613359 -0.11725703 -0.011708058
0.84416151 -0.027208803 0.0010533374
0.9602046 -0.069023207 -0.011561463
0.96915263 0.13864049 -0.01153993
0.97421724 -0.12327073 -0.01154561
0.96157557 -0.11365846 -0.012049615
0.85209024 -0.031185275 0.0010278001
0.84033686 -0.023314089 0.0012712338
0.76997942 -0.11158426 -0.015655616
0.76800168 0.018810639 -0.015656637
0.95389372 0.13486362 -0.012144892
0.95797354 -0.11110278 -0.011800264
0.8283174 -0.014898267 0.00084427651
0.8165701 -0.0073472266 0.00072001654
0.9239009 -0.08711303 -0.011994919
0.71115786 -0.068889938 -0.017456969
0.99414301 -0.045249186 -0.0098938262
0.9923293 0.08078704 -0.0098595181
0.99614102 -0.15736413 -0.010866485
0.84612495 -0.027183395 0.0012856805
0.80019814 0.00084873638 -0.0085568307
0.81568223 -0.0037890831 0.00065266975
0.7740469 0.14725493 -0.011369895
0.92975777 -0.089465708 -0.01248862
0.89005113 -0.056377541 -0.0050903577
0.86192918 -0.06186948 -0.013598826
0.84582227 0.049048409 0.0097300587
0.96610618 -0.10898279 -0.011526285
0.91405219 0.13715073 -0.01196647
0.9178229 -0.07707338 -0.011905167
0.79677898 0.022766063 -0.0071108686
0.76219434 -0.10719687 -0.016120015
0.75991529 0.01875435 -0.015449106
0.78804415 0.014280789 -0.01315403
0.84009379 -0.015531939 0.0013091611
0.92587417 -0.079461224 -0.012121005
0.94647849 0.086330079 -0.012192317
0.94810015 -0.10524528 -0.011874886
0.95275325 0.050911505 -0.0020112421
0.94417143 -0.0917219 -0.012054171
0.82696331 0.026825713 0.0049194014
0.94828224 -0.093249559 -0.011905848
0.89990324 -0.057464611 -0.010029374
0.88397467 -0.043050095 0.001447226
0.9159795 0.024775723 0.021486113
0.9520874 -0.093004853 -0.011801923
0.96371526 -0.088609032 -0.011754882
0.94987732 -0.091230877 -0.011887619
0.91242111 0.074999996 0.003302488
0.88042706 -0.016386982 0.019392015
0.90046376 -0.054062553 -0.0059186448
0.90198547 -0.055523213 -0.0083134342
0.85830098 -0.089566693 -0.013906623
0.95219111 -0.090939492 -0.011870621
0.77763689 -0.095045455 -0.016568292
0.77604669 0.030973883 -0.015519336
0.78289324 -0.0979205 -0.016266694
0.77984494 0.029495616 -0.015633661
0.89930242 0.13169941 -0.0091329701
0.84020913 -0.0091867959 0.003604189
0.81456828 0.010702151 0.00084349111
0.95386618 -0.091046274 -0.011882477
0.94429499 -0.083682545 -0.011867618
0.8440612 -0.0051981732 0.0070080236
0.83614063 -0.00093121669 0.0054718037
0.88207787 -0.061231274 -0.012056069
0.83427989 0.00084477093 0.0033189086
0.96581507 -0.095449813 -0.011454374
0.86613065 -0.019547351 0.0057245502
0.83198953 0.0026462635 0.0036766054
0.86490184 -0.010779425 0.025309382
0.96173549 -0.091308296 -0.011583976
0.93833935 -0.075509205 -0.011980164
0.86977524 -0.019670354 0.0063492018
0.86803895 -0.017344421 0.011514091
0.87013954 -0.019153835 0.0078741591
0.81607574 0.01481077 0.0010180199
0.94416684 -0.077249691 -0.011943832
0.87194681 -0.019849515 0.0059727589
0.87206841 -0.017595427 0.011808421
0.85664064 -0.0024535505 0.025225123
0.83785218 0.0046372609 0.0059324787
0.83602881 0.0047209412 0.0055286125
0.83006579 0.0069037457 0.0034242412
0.83794051 -0.035033766 0.0013048667
0.85012054 0.11696348 -0.010885625
0.87361091 -0.017728757 0.01206685
0.86434156 -0.0093941092 0.025267756
0.93783045 -0.073104285 -0.011737248
0.90067601 0.13335843 -0.0092521356
0.88390505 -0.029435178 0.00031405917
0.69990855 0.17861588 -0.015400184
0.70150191 0.048732139 -0.01481901
0.87400913 -0.021298511 0.0024257107
0.87390703 -0.020073984 0.005919375
0.87161088 -0.01225069 0.025146307
0.82982874 0.0083968025 0.0033321558
0.95615751 -0.085411109 -0.011670685
0.88372409 -0.027323315 0.00035692344
0.87176353 -0.019572917 0.0079742894
0.8201471 0.016871573 0.0015321133
0.8540827 0.0025748836 0.025237842
0.85250252 0.0045629176 0.025413677
0.87802023 -0.022055974 0.0013213225
0.82608366 0.016508549 0.0031677594
0.84975553 0.13267714 -0.012022128
0.88023835 -0.023372443 0.0015791786
0.8681314 -0.0070306282 0.025146771
0.83001256 0.014587458 0.0051118284
0.96361929 -0.085515872 -0.011813901
0.88029045 -0.014962569 0.023382531
0.86609775 -0.0051061055 0.025388038
0.82802224 0.014966232 0.0051299701
0.81369537 0.022725325 -0.0016787957
0.92012465 -0.047765836 -0.0080691511
0.83214378 0.014792999 0.0073030745
0.83021867 0.014855104 0.0066963155
0.82607579 0.018934239 0.005695432
0.71012002 -0.12656637 -0.086142443
0.81020629 0.026607355 -0.0018767837
0.82183236 0.020793013 0.003729858
0.86843503 -0.0051250304 0.025495321
0.86768448 -0.0037166185 0.025300281
0.82040185 0.022258066 0.0026232922
0.94823182 -0.087589607 -0.01209095
0.83810395 0.012514068 0.0074714608
0.86525333 0.063350581 0.0080976533
0.91817439 -0.047518287 -0.0062891366
0.88590294 -0.099066898 -0.013620873
0.95543146 -0.075079866 -0.011954692
0.81205815 0.024602931 -0.0018309943
0.87446165 0.086695686 0.0027147878
0.92234349 -0.051835194 -0.011993268
0.8359679 0.014829613 0.0094207209
0.82753885 0.020872448 0.007163465
0.86785358 -0.009031943 0.024848282
0.82776123 -0.01713792 0.0010217918
0.86246639 -0.0068310485 0.024962682
0.97999763 0.13581927 -0.0070413779
0.95243198 -0.071513958 -0.01230216
0.91823608 -0.045489006 -0.004096379
0.85405362 -0.13321714 -0.013060422
0.85257292 -0.0024991785 -0.012693165
0.82616144 0.022323215 0.0067015598
0.83209115 0.01886324 0.0072667068
0.82983595 0.021077933 0.0075773541
0.82436585 0.02419338 0.0051226504
0.79848564 -0.0034361081 -0.010586065
0.81870121 0.026100202 0.00089201727
0.87064612 -0.011401681 0.025141865
0.95783997 -0.074694142 -0.012133082
0.79629511 0.040676229 -0.010790763
0.92247671 -0.045640863 -0.0063290205
0.83459675 0.020268027 0.0092051579
0.82578909 0.024856813 0.0055461419
0.95984137 -0.073490612 -0.011910273
0.94806176 -0.065230355 -0.011984411
0.85498595 0.000979751 0.025130985
0.84218228 0.056985408 0.0051080938
0.81829017 0.028721657 0.0011025545
0.95433199 -0.068714105 -0.011636003
0.95384431 -0.067196444 -0.011738363
0.92224425 -0.043859333 -0.0042849863
0.90230829 0.13461484 -0.0093624536
0.89415634 0.11748009 -0.0093377978
0.97652566 -0.080962338 -0.011458948
0.90779197 -0.0030343058 0.023176586
0.87596053 -0.010897912 0.025284234
0.96250361 -0.09008193 -0.011736295
0.99790376 0.054890886 -0.010007119
0.99986446 -0.075272128 -0.010040548
0.95794058 0.066121362 -0.011644483
0.95974034 -0.067224734 -0.011688874
0.89528424 0.0004063255 0.025476992
0.89388144 -0.011241402 0.02348269
0.89024061 -0.0074254782 0.025386019
0.96414953 -0.091406368 -0.011600266
0.95595914 -0.064790696 -0.011671926
0.93610585 0.056889039 0.004631957
0.92193002 -0.076454237 -0.013629343
0.92210478 -0.037066177 0.0014222512
0.96674114 -0.09106046 -0.011600223
0.84168828 -0.025438948 0.0010660462
0.80802351 0.042794265 -0.0041008401
0.83815569 -0.0031413019 0.0033756308
0.92419189 -0.03531827 0.0015734229
0.92133236 -0.034839693 0.0029431493
0.91982538 -0.033167545 0.002960182
0.89982742 -0.016420595 0.010016884
0.8055439 0.044971123 -0.0057478063
0.93784344 -0.023153491 0.0016645859
0.82819736 0.034856927 0.0032520692
0.90582359 0.15311958 -0.0092898328
0.84200948 -0.0052953889 0.0056374571
0.89956808 -0.011139354 0.019142207
0.92244673 0.044855811 0.0041769762
0.80559009 0.047146529 -0.0060202605
0.89558089 -0.012973738 0.021149918
0.97612393 -0.058845472 -0.011515968
0.90169561 -0.012932541 0.013560153
0.7985456 0.050651319 -0.010909851
0.94025987 0.16224883 -0.0115116
0.94388461 -0.089256026 -0.011815251
0.82210559 -0.0093615893 0.00082131207
0.92610836 -0.033171244 0.0016514955
0.91719061 0.097765133 -0.0050619212
0.81844717 -0.006875549 0.00081154169
0.9034934 -0.014756856 0.0086513367
0.90153754 -0.0092541659 0.02016967
0.90030766 -0.0087759774 0.021463363
0.90356165 -0.01291075 0.012741291
0.95955455 -0.079240598 -0.011757882
0.9500345 0.048743453 0.00013076777
0.84358883 0.03101135 0.020003134
0.83800775 0.032871041 0.011709768
0.8478741 -0.011885487 0.0088480636
0.83394521 0.034924541 0.0077645089
0.97090191 -0.087600037 -0.011833135
0.95159596 -0.045304157 -0.0093159368
0.95029992 0.080758236 -0.009064232
0.96402764 -0.083293319 -0.011929002
0.80766392 0.050938342 -0.0057151946
0.82413477 0.040883869 0.0011945078
0.79892743 0.055374917 -0.011403892
0.90540129 -0.010704195 0.014919271
0.83363718 0.036674626 0.0077675204
0.80406994 0.054499663 -0.0068454817
0.80786604 0.053276815 -0.0058760061
0.83595073 0.018649081 0.009545967
0.8101691 0.047127336 -0.0042023156
0.90752316 -0.010457033 0.011666315
0.80454421 0.056103524 -0.0068967659
0.96252561 -0.081687152 -0.011975524
0.95403415 -0.06319499 -0.011685946
0.89762551 -0.014610369 0.0154434
0.83255762 0.04091876 0.0066168681
0.83083034 0.042243417 0.0046859491
0.80299497 0.058365002 -0.0089029213
0.90799415 -0.0089960471 0.013565918
0.84567577 0.037118502 0.019939175
0.73541445 0.12656331 -0.013345839
0.73831969 -0.0036581496 -0.013139107
0.94194305 -0.097487412 -0.011666923
0.9771539 0.11310393 -0.011738154
0.97912997 -0.083767168 -0.011424505
0.90597826 -0.0086114956 0.019251753
0.88174742 -0.023082083 0.0014902499
0.79702252 0.026277116 -0.0072570015
0.93744195 -0.030853532 -0.001309773
0.89987433 0.0026650666 0.025387336
0.95841974 -0.1132405 -0.012002655
0.90805149 -0.0014524962 0.023296235
0.93934625 -0.032393102 -0.0048450055
0.93557745 -0.027537834 0.0011478112
0.8198294 0.024403121 0.0011330289
0.81006503 -0.023031585 -0.010286462
0.83675891 0.042443871 0.0089115193
0.83615184 0.04275988 0.0073783314
0.9094826 -0.00457151 0.019676086
0.81377703 0.056750972 -0.0041505164
0.80814177 0.060864832 -0.0065906765
0.90009028 -0.013163982 0.016834451
0.83984059 0.042698335 0.0095316358
0.8340413 0.045556832 0.005598932
0.99994326 0.050577309 -0.01013245
0.91187173 -0.0040360065 0.015961524
0.86175889 -0.051517893 -0.0035593668
0.94195372 -0.1010491 -0.01177944
0.8208099 0.054522652 0.0010784721
0.80664462 0.062630728 -0.0086034872
0.98759228 -0.063250586 -0.011855803
0.97545135 0.14254203 -0.0071814298
0.98562527 -0.063047968 -0.012155112
0.98422968 -0.061203491 -0.011562697
0.9121998 -0.0030132092 0.017408963
0.84019613 0.044533871 0.0092243152
0.872051 0.054883011 0.025651816
0.98273718 -0.059609156 -0.011602381
0.91168326 -0.00086823362 0.021242971
0.9460305 0.056557477 0.0015326386
0.8306765 0.050844416 0.0027409624
0.82201302 0.056772474 0.00094848959
0.9865514 -0.06108585 -0.01161468
0.90201712 0.0067655137 0.025519533
0.95019573 -0.089008123 -0.012082105
0.83188337 -0.0010053177 0.0017198771
0.81790471 0.054988902 -0.0020292026
0.9205389 -0.031465545 0.0028745942
0.81487346 -0.01866076 -0.0031680274
0.9139545 0.00036033991 0.019448362
0.91340423 0.00096043991 0.021476109
0.83425897 0.052139934 0.003883424
0.98386842 -0.05525206 -0.011794214
0.80081064 0.050710194 -0.0090794154
0.82212996 -0.011679091 0.00084480486
0.92631471 -0.019491242 0.0029109074
0.8338356 0.06495361 0.00099637941
0.84180605 0.048838142 0.0057569006
0.81827033 -0.009407795 0.00079269259
0.87019879 -0.021347947 0.0054607159
0.81791139 0.064648278 -0.0041944957
0.83616227 -0.073168389 -0.012859883
0.95000863 -0.095152453 -0.011682875
0.91517299 0.0026885667 0.017650032
0.98541635 -0.05336462 -0.011876432
0.83204311 0.058719553 0.0013086926
0.94529438 -0.020856388 -0.00074001629
0.9419781 -0.01914319 0.0016364352
0.92983657 -0.0093509126 0.0034330457
0.84803885 0.16834196 -0.012130918
0.85049492 0.043499008 -0.011630937
0.83991021 0.052855909 0.0035454319
0.83772045 0.19929811 -0.010632838
0.94188172 -0.071285821 -0.011718011
0.87002581 0.060662739 0.02353623
0.82180369 0.026311869 0.0027799057
0.82421237 0.025065606 0.0030721927
0.96804988 -0.089272253 -0.011706301
0.91624153 0.078974701 -4.8533653e-05
0.99766272 0.064891137 -0.010120974
0.99999243 -0.069237895 -0.010298583
0.83208454 0.017167257 0.0075401929
0.92434925 -0.023291687 0.0031008236
0.85936183 -0.059864648 -0.013417654
0.99998027 0.17717072 -0.0070501082
0.94050056 0.10712748 -0.011932136
0.94392407 -0.14485821 -0.011712929
0.88900614 -0.095046438 -0.01388467
0.91758311 0.0069289804 0.016872274
0.86193407 0.046848875 0.025126684
0.84794652 0.052691713 0.0095172413
0.92416048 -0.021415532 0.0028360174
0.92615569 -0.02350021 0.0028998377
0.83814609 -0.073081367 -0.012979193
0.83427334 0.04244528 0.0074934331
0.96215153 -0.085211322 -0.011739699
0.83013129 0.06495066 0.0009299363
0.90959549 0.015137674 0.026666174
0.90850943 0.016440248 0.026645996
0.87651771 -0.0050710826 -0.013418353
0.87747329 -0.13509859 -0.013545495
0.96025181 -0.08485911 -0.011748998
0.88840425 0.12286934 -0.0093786158
0.86182386 0.048723307 0.025352864
0.84220099 0.058660507 0.0050766156
0.79196459 0.15090401 -0.011379215
0.79455507 0.024660954 -0.01076195
0.9340564 0.058376309 0.003061576
0.91429436 0.013011743 0.021806
0.83067334 0.012881695 0.0050101858
0.96591532 -0.08545237 -0.011875647
0.87155491 -0.11956821 -0.013778562
0.86991757 0.0028227956 -0.013514078
0.85788941 0.052739553 0.023631515
0.69938904 0.18751536 -0.014111442
0.70250452 0.056716137 -0.014799058
0.83616644 0.062670097 0.0010074124
0.92741621 -0.021224175 0.0031188363
0.89043069 0.052448373 0.026758768
0.90802622 0.044760931 0.023918029
0.99692732 -0.050811823 -0.011466909
0.98605978 -0.16694143 -0.011513671
0.9835161 -0.041414775 -0.0115119
0.83589917 0.00058697036 0.0036014917
0.77098572 0.10856557 -0.011370162
0.84050125 0.0052708499 0.011073878
0.85592723 0.074490733 0.0029281399
0.91207099 0.12898216 -0.012121014
0.90210688 -0.0084858034 0.020777958
0.88275629 0.12003964 -0.0092454106
0.8598085 -0.0047675408 0.025218984
0.85364956 0.11469444 -0.010877712
0.99596864 -0.15521818 -0.011463555
0.99382013 -0.047944464 -0.011487041
0.82510692 0.021055654 0.0062363786
0.86202723 0.050688654 0.025389427
0.80443215 -0.0033277902 -0.0052861189
0.8599869 0.054895755 0.023444491
0.83635837 0.064572915 0.00089011242
0.93416989 -0.0031718733 0.0032446661
0.7820425 -0.10175352 -0.015882527
0.77949286 0.024781665 -0.015415447
0.99064368 -0.168485 -0.011555838
0.98792583 -0.042641073 -0.011519279
0.98614228 -0.16977239 -0.011458864
0.98470366 -0.039822988 -0.011607364
0.86013788 -0.0012372063 0.025063818
0.94561821 0.029000666 0.0048943241
0.99081963 -0.045220882 -0.011504497
0.91609603 0.042709898 0.015437119
0.99593282 -0.047307953 -0.011586518
0.8380934 0.06472262 0.0013758624
0.99760842 -0.047026712 -0.011655631
0.7880922 -0.019396944 -0.012972682
0.98928905 -0.16512017 -0.011594216
0.98741138 -0.039590459 -0.01163766
0.89943135 -0.14335737 -0.013626353
0.83606553 -0.059324253 -0.012729205
0.81982803 0.013460762 -0.0014514609
0.86192214 0.054772519 0.023572344
0.85796165 0.057324219 0.014008156
0.77787441 -0.090883307 -0.015680507
0.922593 0.02744554 0.0081739649
0.84589529 -0.035355344 0.00099729816
0.92431676 -0.01311756 0.0032405236
0.95229226 -0.011428121 -0.0040432848
0.84640527 0.063399062 0.0056644394
0.91247004 -0.0010795954 0.019533955
0.88002247 -0.0073402966 0.025311396
0.89815444 -0.055994786 -0.0078659095
0.94761193 -0.012993439 0.0012297091
0.94746029 -0.0069399709 0.0027737445
0.9260819 -0.010976211 0.0031065715
0.92758757 -0.012857901 0.0033830646
0.91006786 -0.0064419783 0.015250729
0.76647979 -0.031049047 -0.01556479
0.87134159 0.051684558 0.02586743
0.83004493 0.03876118 0.0050438037
0.91404676 0.040810607 0.017679164
0.88508868 0.059901439 0.025133723
0.91803956 0.018424088 0.018017564
0.91607898 0.020852519 0.021665253
0.81813318 -0.041332934 -0.012926152
0.81583118 0.084625661 -0.012246702
0.91722566 0.015250238 0.024982193
0.92985547 -0.013213598 0.0033879499
0.81432682 -0.021009123 -0.0049139089
0.86615711 0.056660332 0.023494381
0.83813369 0.046905264 0.0074502807
0.74952674 0.18184128 -0.0130749
0.75436103 -0.076428987 -0.013266453
0.75185019 0.048604891 -0.01244326
0.86399657 0.058842618 0.021684911
0.83007121 0.016515352 0.0069133765
0.9088136 0.028624844 0.02960784
0.95546275 0.062293105 -0.0070614209
0.82455617 0.026740132 0.0032236564
0.87403417 0.052880373 0.026211219
0.99781412 0.15167458 -0.0073376684
0.84419006 0.070826419 0.0010321992
0.82623643 0.082561858 -0.0045688744
0.94630331 0.085014626 -0.011690726
0.9477936 -0.10320976 -0.012107455
0.90763873 0.032619804 0.027015543
0.87402892 0.054880537 0.025601028
0.93023622 -0.011107746 0.0032780652
0.83398718 0.078550071 -0.00065612781
0.66434902 -0.14544374 -0.089500047
0.88244122 0.10266236 -0.00045118952
0.82437545 0.084275767 -0.0069144559
0.90021557 -0.014950062 0.012610131
0.83021283 0.0048975698 0.0034604697
0.94987607 -0.0010210953 0.0029724364
0.79435974 0.058198947 -0.011390961
0.79212147 0.1885688 -0.011363747
0.8443228 -0.031271402 0.0010610325
0.85406011 0.066764526 0.0050305827
0.85831678 -0.0012786774 0.024976756
0.98578894 -0.059135858 -0.011593697
0.8683607 -0.030932466 0.0034690988
0.8721385 0.06312988 0.019537216
0.85578305 -0.00035061446 0.024874398
0.95394903 -0.0024899209 0.00059509714
0.93859285 0.1107709 -0.01144152
0.94223374 -0.14277229 -0.01178743
0.88214207 0.053138822 0.025694322
0.87809587 0.0547143 0.025638029
0.94240803 0.075490259 -0.0057940488
0.84780335 0.0025095707 0.017661894
0.88196617 -0.019458586 0.011416584
0.96797842 -0.073426582 -0.011582801
0.85810047 -0.027151439 0.0035805411
0.86817247 0.063168846 0.017551525
0.96812612 -0.086867832 -0.01183328
0.81977111 -0.010963148 0.00075619121
0.85414094 0.10265768 -0.0066172094
0.85481405 0.10261892 -0.0053506154
0.83221149 0.01272783 0.0057170703
0.86001158 0.06666711 0.0072923172
0.82628614 0.030719196 0.0033252139
0.95966738 -0.11301149 -0.011816365
0.75185454 0.18638837 -0.013369608
0.75365013 0.056673799 -0.013005677
0.93547463 0.015383204 0.0047458829
0.94561267 -0.016938496 0.00104576
0.96568114 -0.071997322 -0.011548758
0.79136384 0.19296871 -0.011392253
0.95751506 -0.00042912006 -0.0033216472
0.92002487 0.028520629 0.015730625
0.91191196 0.034678377 0.023705279
0.9100756 0.036480013 0.023804884
0.82310712 -0.018939007 0.0010435886
0.86980605 0.064547941 0.015732987
0.90858513 0.19872501 -0.0086115031
0.85804045 -0.057592086 -0.012078029
0.83468908 0.050898239 0.0046856771
0.9939934 -0.026646277 -0.011499509
0.95391536 0.0027740027 -0.00026910755
0.8297509 -0.016735867 0.00080665562
0.84035116 0.12481461 -0.011105589
0.87408745 0.08883781 0.0015217632
0.87014288 -0.003772964 0.025625754
0.8842265 0.054685634 0.025796911
0.91830558 0.030969888 0.019802233
0.85868853 0.071436234 0.0047711148
0.85005862 0.076919034 0.0012443991
0.83629709 0.032615103 0.0095283855
0.83978677 0.085008122 -0.00026916314
0.83232427 -0.042631794 -0.0068671335
0.83052909 0.090465419 -0.0070000812
0.93503809 0.018394051 0.0058808583
0.93368375 0.01890314 0.0070627346
0.87799025 0.060649488 0.023458146
0.85604471 0.050778795 0.023488648
0.92819452 -0.033136956 0.0012955539
0.76455736 -0.044540476 -0.013144068
0.76218343 0.070860781 -0.013093083
0.98622328 -0.018155448 -0.011531479
0.9321636 0.020782342 0.0072091534
0.91835588 0.032723103 0.019874562
0.82592422 -0.01927387 0.00096242822
0.89806753 0.046792079 0.02709315
0.88416976 -0.010974371 0.02504424
0.87396461 0.064503081 0.017540125
0.86417341 0.069949761 0.0067784656
0.86281401 0.07025487 0.0066860109
0.84404904 0.082669638 0.00097756833
0.89787608 0.048510697 0.02676158
0.86962909 0.066455655 0.011836809
0.86117703 0.07203719 0.004785642
0.93587589 0.020735539 0.0051535205
0.92278898 0.028988693 0.007868479
0.99384391 -0.025226854 -0.011433532
0.91816258 0.032833528 0.017863294
0.89415044 0.050965209 0.026942328
0.88406509 0.05893803 0.023788657
0.91541809 -0.095226437 -0.013566783
0.87591457 0.064789467 0.0175496
0.86970055 0.06801258 0.010681982
0.86638588 0.068303488 0.0091601051
0.85789365 0.074651152 0.0032008332
0.8197456 0.028525507 0.0014061069
0.87973017 0.062611356 0.021585131
0.84627557 0.082886636 0.0016282653
0.83217824 0.02269581 0.0072749434
0.93043536 0.019143695 0.0066977921
0.81608766 0.036671769 -0.00079040549
0.93557024 0.022646049 0.004946257
0.89525759 0.063973539 0.013569173
0.88072705 0.10560629 -0.01027998
0.88368487 -0.093706056 -0.011347464
0.94205821 0.016497001 0.0034577716
0.92004341 0.034789436 0.011686759
0.82596868 -0.15473129 -0.013131225
0.82207346 0.096831992 -0.012440315
0.94977719 0.01252314 0.0034355049
0.88227439 0.062552847 0.021568187
0.87997752 0.064826287 0.017630462
0.85054618 -0.0028916595 0.019630615
0.86005282 0.075049497 0.0031171606
0.88548702 0.12579663 -0.0094078109
0.94419104 0.016802944 0.0034107866
0.8973912 0.11446029 -0.0093400171
0.95606601 -0.073666625 -0.012134917
0.92000765 0.032781661 0.013817957
0.8698799 0.071032174 0.0067880233
0.94675517 0.080610499 -0.011786259
0.94767195 -0.099210523 -0.011971378
0.8310048 -0.04027934 -0.0052700671
0.82805222 0.084642112 -0.0048299064
0.85971195 0.1045239 -0.0068307277
0.82584298 -0.022892375 0.00095521368
0.89212507 0.058666807 0.023561211
0.89133966 0.060033474 0.02303404
0.93402356 -0.0053746947 0.003654975
0.84601933 0.078601621 0.0011415387
0.91817391 0.040569767 0.0077356547
0.84198451 0.19692796 -0.010582758
0.91824126 0.040876016 0.011523714
0.83792442 -0.02150731 0.00080081634
0.81617814 -0.017214257 -0.0013138265
0.88972086 0.12155273 -0.0093656387
0.94437397 -0.014314158 0.0027391156
0.82424575 -0.03716851 -0.0085909674
0.93998098 0.024556834 0.0033038207
0.84403157 0.096651286 -0.0045451284
0.92579985 0.072499692 0.0016522002
0.91827726 0.043145191 0.0097018061
0.85413486 -0.11382936 -0.014050555
0.89380711 0.060652893 0.021405626
0.7983321 0.048675802 -0.010582722
0.93998015 -0.013893971 0.0028503579
0.94156295 -0.015108782 0.0030303276
0.92225623 0.039059546 0.0056081745
0.86825722 0.06655547 0.011557815
0.89330113 0.062235985 0.018806005
0.97386891 0.14659302 -0.0073050475
0.84047014 0.078435332 0.001085342
0.90789831 0.032798018 0.025596844
0.95014232 0.0026932787 0.0038023915
0.87043893 -0.084945165 -0.013703755
0.89359206 0.062521741 0.017455522
0.94972599 0.0050892369 0.0033111901
0.95117491 0.00052967563 0.0028605429
0.89990616 0.060184028 0.017548205
0.88205355 0.056932937 0.025229335
0.96187782 0.042924672 -0.0048735868
0.95786512 -0.065382309 -0.011623096
0.91972554 0.043090094 0.0058017015
0.86609876 0.06080712 0.019867396
0.89804113 0.060772214 0.017338604
0.89600199 0.062098764 0.017291449
0.89202189 0.064145178 0.015320187
0.95373511 0.020757647 0.0032556003
0.86433131 -0.019487157 0.0037145007
0.89153117 0.065986022 0.011258452
0.81023854 -0.0051117558 -0.0012373921
0.91482747 0.049532961 0.0079418477
0.83256078 -0.16203958 -0.013652942
0.89582354 0.062486894 0.015355824
0.84798282 0.094729722 -0.002378453
0.89206004 0.054631472 0.025159596
0.87826508 -0.052644901 -0.00077693508
0.95361167 0.022840859 0.0031956788
0.81803358 -0.01727441 -0.00046088675
0.90352827 0.060321465 0.011394928
0.89791352 -0.0012268784 0.025495486
0.96015519 -0.089234449 -0.011660804
0.9121089 0.05479138 0.0056328736
0.82821733 0.042543393 0.0027325745
0.9997704 -0.15395474 -0.011557385
0.99787885 -0.027587565 -0.011735731
0.961115 0.020356586 -0.0033517391
0.9939754 0.078950398 -0.0098918406
0.99610656 -0.025445249 -0.010101162
0.99809194 -0.15099722 -0.010610471
0.92413473 -0.083261579 -0.012074346
0.90827018 0.056927025 0.0077051949
0.87549156 0.08037959 0.0030003074
0.86416453 0.068624474 0.0073725414
0.96400988 0.018709539 -0.0068775122
0.89573467 0.065359123 0.003581112
0.90640742 0.034892749 0.025482729
0.95439076 0.11468919 -0.0089883823
0.92831409 -0.091085397 -0.012412891
0.87782562 0.080452681 0.003177989
0.91629964 0.043309219 0.013311963
0.7713815 0.19341721 -0.012646887
0.77577257 -0.067009173 -0.013319882
0.77393591 0.063024968 -0.012759481
0.91657782 0.036590554 0.019797789
0.90212351 -0.01238148 0.016105311
0.96822429 -0.075240329 -0.011499073
0.85189766 0.096744582 -0.0025183817
0.82010901 0.016583236 -0.0020766272
0.87798494 -0.091496609 -0.013728685
0.79456705 0.14660519 -0.010972739
0.7959789 0.022720052 -0.010271183
0.90194386 0.060177509 0.013546457
0.83078027 0.029418902 0.0066795875
0.87418681 -0.041332342 0.0012086942
0.87209129 0.089109413 0.0018419002
0.91805094 0.057098497 0.0024095008
0.95423806 -0.075426988 -0.011960085
0.91928566 0.057238631 0.0014601423
0.85013896 0.090809025 0.0009134984
0.86779481 -0.0410593 0.0010620385
0.86600345 0.094813339 0.0011993935
0.97773647 -0.082428232 -0.011435851
0.9227398 0.054902449 0.0019915493
0.90807074 0.065461248 0.0024820622
0.86629498 -0.035406888 0.0016516623
0.86421084 0.094880961 0.0011430938
0.95367306 0.014717654 0.0031565137
0.85827816 0.10062742 -0.002276703
0.80775756 0.044754703 -0.0043859705
0.83462203 0.069225602 0.00097820221
0.91976964 0.058700956 0.00037819491
0.91398484 0.063062035 0.001385028
0.8443926 0.056818072 0.006962419
0.8617602 0.10583731 -0.0070679048
0.8122254 0.013366296 0.00062480784
0.90179336 -0.001299729 0.025561893
0.92191464 0.057267714 0.00036819204
0.83422571 0.080596812 -0.00040352036
0.95419216 0.016852077 0.0029203256
0.94979322 0.0066003576 0.0046447744
0.92091233 0.033498127 0.0099553308
0.81172293 0.048919033 -0.003659477
0.83807111 -0.023254635 0.00099831296
0.88742721 -0.15514877 -0.012860812
0.88265628 0.17287643 -0.012373555
0.93409789 -0.013144058 0.0035176417
0.84622937 0.032396659 0.024788329
0.84828454 0.080672219 0.0015713403
0.91302365 0.14931382 -0.0093673971
0.95778286 -0.069308661 -0.011638657
0.82441926 0.036554329 0.0013235754
0.85976672 0.00031831855 0.024985015
0.79617304 0.042461526 -0.010975734
0.82549673 -0.013447911 0.00095829187
0.80617923 -0.10332402 -0.015525761
0.82578397 0.077354908 -0.003861821
0.93691409 0.083403967 -0.008309233
0.91228497 0.042988513 0.022242976
0.85676229 0.10606896 -0.0088537764
0.9259724 0.078426614 8.6822401e-05
0.81262565 0.11579049 -0.01137568
0.80016148 0.046700969 -0.0085255606
0.99013638 -0.12113203 -0.011648937
0.93218744 -0.093176641 -0.012118065
0.9979915 -0.15767847 -0.012303629
0.99558884 -0.027925631 -0.011828176
0.91784263 0.034597661 0.019966967
0.98638207 -0.041054823 -0.011551657
0.97991669 0.11256268 -0.011486926
0.75563091 0.19994038 -0.013280301
0.75807077 0.070824042 -0.012856023
0.98155195 -0.017126754 -0.011418123
0.95007622 -0.09732867 -0.011559438
0.89291686 0.11318459 -0.0091078095
0.94776011 -0.091460675 -0.011862176
0.84065789 0.063038819 0.0028704701
0.94739914 -0.015207338 0.00067257311
0.71193224 -0.12124594 -0.086450174
0.99635684 -0.18521132 -0.011575545
0.89551967 0.055883791 0.024943059
0.72613877 -0.083248176 -0.017713698
0.99850887 0.082361884 -0.010040085
0.99992871 -0.039078016 -0.01064649
0.85798049 0.066181667 0.0069213016
0.96383494 -0.071090639 -0.011519152
0.91011357 0.023599122 0.029282929
0.84378535 0.094617784 -0.0043336223
0.93608648 0.00096536003 0.0033865417
0.87002772 0.10541492 -0.01037477
0.89022726 -0.052827988 -0.00062848977
0.97385931 0.143915 -0.0071875337
0.94598162 0.08302734 -0.011708914
0.94775802 -0.10170957 -0.011878743
0.81596023 0.008675863 0.00090709468
0.92220992 0.034982007 0.0060829162
0.83451164 0.047587443 0.0058695134
0.91018558 0.046558134 0.017662844
0.85817522 -0.0042208 0.025250433
0.84400898 0.0027053428 0.018224556
0.89643854 0.050645918 0.026606938
0.84992588 0.14051194 -0.01223748
0.79282981 0.09257406 -0.010641772
0.95975894 -0.087161146 -0.011756683
0.80786145 0.038954061 -0.0036352777
0.90914935 -0.0064307479 0.016608264
0.95797515 -0.063465051 -0.011702402
0.83418334 0.0026194379 0.0052156253
0.766258 0.078694969 -0.012723901
0.82612044 0.084928848 -0.0063840006
0.96271372 -0.092863798 -0.011576812
0.92069435 0.035090081 0.0078899907
0.80618882 -0.0053202133 -0.0047290581
0.82402861 -0.0011402071 0.0006764374
0.97182864 0.14662503 -0.0072372779
0.89576429 0.11336375 -0.0092121866
0.83605486 0.0024642046 0.0052641202
0.91575664 -0.017314887 0.0020180794
0.86399448 -0.0051672021 0.025311057
0.86610115 0.070420943 0.0070263408
0.88972425 -0.097265765 -0.013856294
0.85399163 -0.13745548 -0.013080255
0.86119562 0.10195271 -0.0027456714
0.9184885 0.03844076 0.010071599
0.8846001 0.11005257 -0.0091339294
0.91166008 -0.0025158513 0.019376069
0.83624983 0.00059117115 0.005566468
0.90313548 -0.011252979 0.017523928
0.91672659 0.0022859343 0.011971938
0.88191825 -0.016948048 0.019315768
0.9019503 -0.053700104 -0.0060440875
0.93781328 0.0026887429 0.0035026395
0.89069289 0.073413856 0.0020631712
0.89210844 -0.047322769 0.0012929126
0.86990017 -0.027435007 0.0074819126
0.7159701 0.0086096758 -0.013186891
0.97884822 0.13508664 -0.0069703516
0.87398094 0.070635639 0.0071443506
0.92821753 -0.09547504 -0.012148716
0.97583383 0.13744392 -0.006971308
0.88595873 -0.085100919 -0.013825014
0.81147927 0.18858491 -0.012162413
0.81609529 -0.071077503 -0.013021395
0.97234422 0.14049496 -0.0069865109
0.86401778 0.05658922 0.023481581
0.90408385 -0.011419407 0.015495991
0.85360801 0.036604643 0.025321988
0.85455024 0.050762016 0.023029616
0.95384908 0.008756808 0.0014149187
0.97796834 0.13651228 -0.0070029045
0.9754737 0.13959087 -0.0070530465
0.91635174 -0.051578589 -0.010024478
0.94001776 0.016548414 0.0033213429
0.82989979 0.018815517 0.0078411093
0.98131746 0.13703428 -0.0071392921
0.99147171 0.13102283 -0.0072204922
0.80983651 0.056923226 -0.0060074199
0.84196973 0.0045510205 0.0097616147
0.98993015 0.13166162 -0.0071961824
0.90151453 0.085406609 0.0030350464
0.90442282 -0.041234318 0.0026360678
0.97680235 0.14120091 -0.0071685459
0.84000921 0.058357883 0.0032694701
0.92986822 -0.015351208 0.003368886
0.99507362 -0.15751365 -0.012308441
0.99370921 -0.045319691 -0.011598136
0.9854874 0.13573076 -0.0072236224
0.88576192 -0.029414332 0.00047051499
0.88419974 0.10054377 -0.00080629979
0.90388429 -0.009526249 0.019620787
0.88608694 -0.087029658 -0.013709323
0.9776445 0.16501839 -0.0072132801
0.94211268 0.047058314 0.0014303344
0.70644331 0.00054395496 -0.014016186
0.84445256 0.010809963 0.022709802
0.704256 0.13065284 -0.014836505
0.90573674 -0.0094176438 0.018037628
0.99339581 0.15659092 -0.0071630641
0.97949225 0.16508849 -0.0072417832
0.87578726 -0.16092645 -0.012820095
0.89210731 0.10249428 -0.00097443914
0.86186737 0.068355128 0.0071946937
0.99012601 0.15880428 -0.0073122811
0.99346048 -0.1547993 -0.011486464
0.99160182 -0.024938731 -0.011440204
0.94779134 0.008748265 0.003444901
0.92407048 -0.019335704 0.0028944088
0.83762634 0.018727081 0.01182057
0.8721053 -0.01462463 0.023148797
0.92239153 0.1148215 -0.0089900736
0.94071674 0.11855019 -0.012000825
0.94384521 -0.14156298 -0.011776996
0.95410818 0.13271603 -0.012011956
0.95758283 -0.13737556 -0.01181084
0.91007024 0.087015487 0.0033390063
0.85001993 0.064553238 0.0049708826
0.89934814 -0.014271251 0.01528058
0.80741471 0.036937352 -0.0035855332
0.79864621 0.042713705 -0.0087309433
0.94987488 0.016778616 0.00325034
0.82034975 0.026964329 0.0012764331
0.88209248 -0.057766985 -0.0081150755
0.93811315 -0.0091529926 0.0034429289
0.94121629 -0.016941145 0.0026245974
0.73537958 0.14899597 -0.013404022
0.73861045 0.022221748 -0.013032546
0.89189386 -0.015296842 0.021678474
0.94801176 0.048572592 0.0030063051
0.90001005 0.090678327 0.003010957
0.85815734 -0.01288771 0.013731291
0.97267193 0.14817952 -0.0073338905
0.96009958 -0.08114595 -0.011773893
0.86397707 0.0030205382 -0.011338271
0.86214137 0.12507565 -0.010974594
0.80694324 0.05007438 -0.00078622717
0.83823144 -0.025370939 0.0010869596
0.93611264 -0.017117502 0.0030606401
0.92820954 -0.09309835 -0.012199228
0.83066261 -0.16170052 -0.013671773
0.82522267 0.092625342 -0.013573842
0.85793537 0.09894716 -0.0026232798
0.97806889 0.16694683 -0.007318147
0.90397322 0.0066252341 0.025335696
0.84609771 -0.032922816 0.0011083195
0.83239359 0.03810443 0.0069959601
0.84569538 0.030957611 0.021896373
0.84994292 0.098442599 -0.004629083
0.82439965 0.018482544 0.0033405134
0.93759483 0.016195005 0.0031342965
0.74591231 0.04811544 -0.012936869
0.74377692 0.17378239 -0.013062582
0.89799869 0.0005387456 0.025431782
0.7631852 0.18358372 -0.013046973
0.7675817 -0.068447232 -0.013325521
0.76620156 0.052689739 -0.01249759
0.85619593 0.092733689 0.0013299838
0.85801363 -0.037143815 0.0012020607
0.91423327 0.022770209 0.023818448
0.85639 0.054836161 0.02152203
0.96787083 -0.097293608 -0.011426623
0.99939013 0.15019795 -0.0073264842
0.86413151 0.052660316 0.025458548
0.88234878 0.098643228 0.0012770835
0.84828168 0.11254658 -0.01093864
0.78163433 -0.07904397 -0.01619231
0.84981203 -0.031340022 0.0011064641
0.93231732 0.026847189 0.0055397539
0.98778051 0.13241386 -0.0071562217
0.95809853 -0.071845062 -0.011694507
0.97123444 0.14998356 -0.0073640998
0.73460877 0.15114671 -0.013081814
0.73645562 0.024644321 -0.013123867
0.81995738 0.018755021 0.0013559051
0.86261868 0.1078595 -0.0089960974
0.92020434 0.097481966 -0.010678109
0.87208736 -0.013059839 0.023655653
0.84086323 0.04664718 0.0087237507
0.84894335 0.06103171 0.0076850499
0.85825098 0.06874878 0.0055802842
0.87384808 -0.031038305 0.0034303502
0.87296408 0.095003434 0.0035950181
0.90419304 -0.0072947699 0.021225475
0.67573214 0.11315285 -0.014822577
0.92942482 -0.018633408 0.00048005028
0.87797511 -0.03702521 0.0012817781
0.87602025 0.08866144 0.0015182415
0.89435321 -0.021252172 0.0024477798
0.91586858 -0.049742494 -0.0076572881
0.97189492 -0.053148322 -0.01196763
0.72279012 -0.086515568 -0.017577276
0.82635128 0.016922109 0.0048012272
0.83208317 0.00087869505 0.0031379878
0.92097193 -0.16959651 -0.011328976
0.82796782 -0.01309102 0.00086317712
0.90280885 -0.11960969 -0.013672212
0.90012604 0.0075070485 -0.013549633
0.94004005 0.16439371 -0.011659046
0.94441134 -0.095432453 -0.012006209
0.91336209 0.064845368 0.00032655548
0.93627793 -0.025186885 0.001415523
0.89780474 0.12852927 -0.011595876
0.90987092 0.13718015 -0.0087921508
0.85985219 -0.0034629754 0.025000736
0.82585251 0.1822411 -0.011301256
0.8392396 0.018336426 0.014402288
0.94407362 -0.013132741 0.0028968675
0.91871053 -0.030567691 0.00030925529
0.91586208 0.094211519 -0.00069161534
0.91382396 0.09464141 -0.0002858784
0.89521164 0.1330003 -0.0090512065
0.8600955 -0.061246671 -0.013641474
0.86153662 0.070669785 0.0055505326
0.90808874 0.10314745 -0.0096559143
0.895769 0.18494824 -0.0093714865
0.82018924 0.014627864 0.0012820187
0.8962099 -0.055321448 -0.0062122731
0.93590289 0.19444329 -0.0089206994
0.94607222 -0.08308436 -0.011873149
0.81139582 0.19212554 -0.011343178
0.98256421 0.13855128 -0.007247942
0.86982369 0.058617514 0.02349457
0.87249684 -0.037624359 0.0027158572
0.84021324 0.06086687 0.0032117565
0.90017426 0.092527427 0.0028978453
0.98752666 -0.067076571 -0.011842275
0.92006713 0.03477332 0.013547441
0.83432686 0.033867925 0.0085902894
0.86602652 -0.049302112 -0.0015766772
0.84775925 -0.053597648 -0.011924924
0.86403376 0.06104273 0.017814998
0.85000598 0.10266732 -0.0085693179
0.89411181 0.11479342 -0.0092187217
0.91825408 0.059009407 0.0014176271
0.89177626 0.052425787 0.02685851
0.87095594 -0.16377515 -0.012616673
0.77374727 0.065052167 -0.010877287
0.86387098 -0.05939934 -0.012090007
0.99819529 0.16664484 -0.0067632329
0.99736339 0.08128085 -0.0098628104
0.99994642 -0.053267866 -0.010115109
0.95660859 -0.071176045 -0.012240578
0.87210464 0.064637847 0.01555667
0.84023023 -0.026778113 0.001040985
0.86030906 0.075251415 0.00015609992
0.88777643 -0.052821275 -0.00069521932
0.90389508 -0.02524727 0.0017255646
0.93821818 0.080860458 -0.0064405319
0.86941779 -0.16166626 -0.012756137
0.90813553 0.054893661 0.0044476823
0.9639253 0.043040346 -0.0069116945
0.96282184 0.15532637 -0.0073126862
0.86841577 0.1063294 -0.0067717242
0.89988446 0.04319407 0.025423957
0.91415936 0.10115574 -0.0099306097
0.78199738 -0.099442922 -0.016186824
0.77905709 0.030725854 -0.015660785
0.86776394 -0.013946206 0.019712837
0.85001045 0.060471512 0.0074212952
0.89003199 -0.023273945 0.0056574005
0.87226421 0.066068903 0.013413179
0.82810885 0.036820278 0.0032354477
0.91408449 0.099175185 -0.0080593843
0.88564539 0.11171855 -0.0093980655
0.86821032 0.064573437 0.013715271
0.86648369 0.10410859 -0.0039577777
0.86609221 -0.0020052635 0.025344431
0.88202971 0.096709073 0.0013742115
0.8877874 -0.09357243 -0.013907853
0.86588061 -0.022624837 0.0075380933
0.91197371 0.13505337 -0.011849232
0.90224922 -0.0071224226 0.022247866
0.8276788 0.018177442 0.0064754356
0.85194862 0.088758163 0.0010468224
0.85410035 -0.041243967 0.00092894997
0.85248613 0.09087301 0.0012007689
0.85419798 -0.035159118 0.0012691792
0.90084732 0.094503269 0.0028295929
0.91738808 -0.12241926 -0.013534148
0.85104823 0.028537238 0.026478054
0.84010375 -0.1113585 -0.015420732
0.92370468 0.18671155 -0.008934333
0.99411374 0.13321717 -0.0074060867
0.90362293 0.10149949 -0.0079580592
0.73633164 0.1544998 -0.013299067
0.73842221 0.024946736 -0.012919785
0.97963494 0.14409758 -0.007391334
0.85216218 0.12476441 -0.011091135
0.95625865 -0.087373175 -0.0116753
0.76814461 0.060820367 -0.012826557
0.94375789 0.10441593 -0.011784659
0.94782037 -0.12518045 -0.012161427
0.88429463 0.12139344 -0.0091747046
0.96437693 -0.094174676 -0.011515893
0.94823295 -0.085156187 -0.011990804
0.96761918 -0.022671243 -0.0089279767
0.96603215 0.09888 -0.00901784
0.90673095 -0.12010101 -0.013647474
0.90375578 0.0059253015 -0.014134035
0.9301151 -0.0075416681 0.0034103
0.87206542 0.068598583 0.0093014967
0.8821584 0.090379961 0.0028532569
0.84608281 0.080769181 0.0014070813
0.84813994 -0.041789141 0.0010378566
0.91802478 0.042867564 0.011662096
0.89168763 -0.052940793 -0.00070465996
0.9982186 -0.049086727 -0.011586175
0.88561928 -0.15260753 -0.012402523
0.88207078 0.16451874 -0.011828292
0.82324821 0.18878019 -0.011747885
0.82803994 -0.06502296 -0.012999545
0.86813945 -0.01773368 0.0095280744
0.81201494 0.18674016 -0.011881816
0.81593233 -0.065495797 -0.013001164
0.97963166 0.14122456 -0.0072655012
0.97814417 0.14538731 -0.0073972298
0.90770739 0.058061514 0.01059767
0.98112571 0.14280786 -0.0073854378
0.98186749 0.14058743 -0.0073134224
0.98405802 0.13989514 -0.0073573929
0.94576466 0.054720111 0.0016401722
0.86829215 -0.025055256 0.00296877
0.86602086 0.078456834 0.0029310919
0.92195386 0.16294771 -0.011492161
0.92607987 -0.091132313 -0.012147001
0.86602336 0.10841367 -0.0089888275
0.86820102 0.051300239 0.025567278
0.83362818 0.048506752 0.0053178095
0.99186999 0.13268295 -0.0073066405
0.77679163 -0.087075986 -0.015646428
0.77414262 0.034653686 -0.015666051
0.8883996 -0.159151 -0.012967768
0.88219625 0.1684238 -0.011886245
0.83604187 0.082954712 -0.00024341272
0.81852561 -0.030620005 -0.0069410843
0.68651807 -0.051823404 -0.016279241
0.68364352 0.07886035 -0.01692969
0.83630216 -0.025427787 0.00096456613
0.88607568 -0.15061896 -0.012538181
0.88205642 0.16659333 -0.011782704
0.86208224 0.09071447 0.0014935514
0.8638885 -0.043034755 0.00096924644
0.85622859 -0.0090601826 0.017363885
0.87456822 -0.028827444 0.00032048082
0.87211418 0.10043473 -0.00055753638
0.88996768 0.11606632 -0.0091339275
0.90214479 -0.016889069 0.0071003423
0.92011976 0.13654841 -0.008707026
0.8977325 0.13883747 -0.0093921004
0.96832651 0.1028583 -0.0090398956
0.9703998 0.10084997 -0.0089207888
0.91962439 0.016669029 0.015933547
0.74267393 0.1680838 -0.013183672
0.74425083 0.034279164 -0.013070337
0.90102345 0.067087829 0.0018506991
0.75110573 -0.022543108 -0.012899295
0.75012088 0.11020015 -0.012843517
0.91815698 0.034863222 0.017674055
0.91635489 0.080684692 -9.9568642e-05
0.96600252 0.10291557 -0.0091445362
0.87405968 -0.017205143 0.015955314
0.90975523 0.00085805129 0.023197431
0.83581835 0.048822213 0.0058486979
0.87186301 -0.015419756 0.020107582
0.90025449 -0.055645097 -0.0078401202
0.96607757 0.10060035 -0.0090564331
0.92049897 0.13087401 -0.0088139214
0.8724525 -0.039255649 0.0010629159
0.8701638 0.082871504 0.001404812
0.93415755 0.12079645 -0.0090992423
0.93614691 0.11916596 -0.0092278151
0.94385046 -0.023016674 -0.00099647301
0.8706038 -0.16588759 -0.012472856
0.90601373 -0.023017285 0.0018972935
0.8880235 -0.057722013 -0.0083284508
0.97416413 0.14114113 -0.0070764865
0.88389271 -0.014912604 -0.012229486
0.88617289 -0.14458384 -0.012924558
0.88142633 0.15660137 -0.011859236
0.83373499 0.03918438 0.0078213038
0.94248122 0.11316945 -0.0089031085
0.92197675 0.12676933 -0.0090488354
0.93398875 0.11891627 -0.0092609329
0.93191075 -0.0031752994 0.0035406314
0.95054966 -0.019591957 -0.0080078812
0.94847697 0.10715999 -0.0089488989
0.95944297 0.040311515 -0.0030891215
0.89436078 0.11187188 -0.0093497066
0.81905007 0.079066746 -0.010222845
0.68297541 -0.11881598 -0.017157979
0.91412252 -0.12485254 -0.013431896
0.94551659 0.11879642 -0.011622493
0.76176637 -0.10908418 -0.015944039
0.94989157 -0.1353877 -0.012121541
0.75977248 0.021429513 -0.015601735
0.85388595 -0.033363383 0.00085435726
0.90608227 -0.021217875 0.0020063047
0.84849578 0.063832551 0.0058607515
0.84039837 0.058120262 0.0048732911
0.96208638 -0.11117408 -0.011790018
0.86234653 0.065615267 0.0040360498
0.85605335 -0.0086479988 0.019367239
0.90354222 0.13327588 -0.0093456954
0.903606 0.13043582 -0.0092235785
0.86843407 0.069014989 0.0091787623
0.87994546 -0.029378444 8.0005266e-05
0.87788218 0.10056389 -0.00052084465
0.93344069 0.082014918 -0.00072403828
0.90092695 -0.16805513 -0.012392051
0.83591741 -0.01304897 0.001409605
0.89933622 0.13473202 -0.0092668207
0.96465373 -0.073322788 -0.011454621
0.93222427 0.11201068 -0.0093827806
0.81952363 0.014886996 -0.0019623737
0.90227759 0.13185792 -0.0092407707
0.84287459 0.0047795735 0.019301688
0.87014115 -0.009173343 0.025000213
0.99431926 0.17048384 -0.0068883067
0.90787941 -0.0069904411 0.017814744
0.87408191 0.060435049 0.023410177
0.84374475 -0.029089026 0.0010355854
0.70836014 -0.073657863 -0.017721795
0.91800392 0.11972643 -0.0092430729
0.98958224 0.19661792 -0.0071487385
0.94388986 -0.081451751 -0.011957216
0.83983368 0.01472772 0.015744975
0.93995541 0.060682364 0.0033923248
0.90170336 -0.011197569 0.016888302
0.96345556 0.0130201 -0.006679154
0.89795816 0.13317457 -0.0091519477
0.92033201 0.11878763 -0.0093252314
0.92144179 0.11695861 -0.0092313038
0.97213888 0.14303638 -0.0070907595
0.88641346 -0.14873526 -0.012666477
0.88179803 0.1609727 -0.011527468
0.82270455 0.19308414 -0.0118601
0.82607043 -0.059221819 -0.012894202
0.74015266 0.060429707 -0.012787886
0.9097389 -0.0054226294 0.017752659
0.93609256 0.070802003 -0.0002983881
0.84433669 -0.0029072333 0.0093614412
0.9180541 0.11671388 -0.0092944708
0.8903079 -0.095958553 -0.01388889
0.88201743 -0.015352905 0.023156516
0.91865826 0.016493225 0.015991535
0.91410106 0.047216706 0.015990913
