# .PCD v0.7 - Point Cloud Data file format
VERSION 0.7
FIELDS x y z
SIZE 4 4 4
TYPE F F F
COUNT 1 1 1
WIDTH 1249
HEIGHT 1
VIEWPOINT 0 0 0 1 0 0 0
POINTS 1249
DATA ascii
0.89853805 0.057778556 0.014584726
0.83654833 0.022892516 0.0051501496
0.87353808 0.073817514 0.005797375
0.88931823 0.057517331 0.020564739
0.81211591 0.032136634 0.0073466087
0.88907301 -0.017290978 0.01844693
0.91773564 -0.0029447263 0.0075439052
0.80398333 0.0012585804 -0.0030416695
0.81080323 0.024729215 0.0013353386
0.81421047 0.025291514 0.0027259113
0.81353539 0.038920868 0.0018469372
0.80959541 0.030122789 0.001848374
0.82669461 0.015049553 0.00060512469
0.86041152 0.085035056 0.001143883
0.8564896 0.088035211 0.00079507311
0.81385416 0.029319489 0.0036881773
0.90484989 0.031972311 0.022251338
0.90749472 0.046291616 0.025872432
0.90908974 0.056740258 0.0043018884
0.90552109 0.014261141 0.02686432
0.86711866 -0.011200896 0.020471787
0.8534075 0.04181505 0.026189182
0.84583348 0.048284832 0.016115002
0.84084439 0.043483287 0.011604123
0.84036231 0.029291762 0.023296447
0.85364455 0.053026896 0.02087974
0.87948251 0.06243981 0.014257418
0.86456597 -0.017550254 0.01230482
0.91724426 -0.042782668 0.00080825994
0.90504271 -0.0071139438 0.019874958
0.87387067 -0.01740705 0.020199614
0.8998996 0.040604156 0.025068419
0.83519948 0.080441348 0.00090317073
0.84468925 -0.0032297967 0.011346724
0.81300664 0.043567799 0.001120941
0.82983357 -0.015887296 0.00089941849
0.84513897 0.0020436847 0.017841695
0.85328197 -0.0078025162 0.017417222
0.82597715 0.021045631 -4.9198945e-05
0.89291996 -0.017839147 0.01268731
0.84052324 0.023591824 0.021991773
0.90165508 -0.01319058 0.013504087
0.8353914 0.082848243 0.00088369154
0.84796768 0.084847905 0.00098101678
0.84883964 0.080702133 0.0014219652
0.8296352 -0.019738616 0.00094098278
0.84032351 0.040046077 0.015927767
0.84631604 0.051887117 0.0038819625
0.89270848 0.056970261 0.019721899
0.87517434 -0.020614091 0.0045025321
0.8888889 0.061373495 0.01496265
0.88382781 0.062256154 0.014489542
0.85764831 -0.006675614 0.020150563
0.86074388 0.04769928 0.025973212
0.88228804 0.086781897 9.6644006e-05
0.83710665 0.021017961 0.0048756739
0.85856962 0.061194677 0.0047710119
0.87792075 -0.018750396 0.013535894
0.83422858 0.070320636 0.00097326102
0.90803027 0.086900711 0.00052548142
0.83214003 0.044468351 0.00019116238
0.90576971 -0.011470063 0.0083979471
0.83423591 0.074590951 0.00090248993
0.90375274 0.035906747 0.025067171
0.81562698 0.071739897 -0.04501399
0.81701428 0.073043697 -0.044259384
0.89942431 0.080978967 0.0004417756
0.836528 0.072127052 0.0010246249
0.90615404 -0.007363575 0.017811051
0.92138809 0.037319418 0.010861593
0.87909234 -0.016796762 0.01373365
0.90854758 0.034639347 0.026381344
0.84478521 -0.028259249 0.0016953443
0.91661203 0.0065807253 0.017056739
0.91594422 0.044386912 0.016869459
0.84809071 -0.029218594 0.0015201274
0.88830751 0.051408857 0.023666427
0.83584863 0.017094625 0.01165443
0.83070529 -0.0038182409 0.0022927711
0.89996213 -0.015808083 0.0087226415
0.95586431 0.0069796378 0.0018203037
0.9075765 0.06875696 0.0066838786
0.91793984 0.0049606306 0.012811719
0.95596957 0.024345007 0.0023466474
0.95141679 -0.0029858931 0.0019987454
0.87762105 0.085914694 0.00037025724
0.95874363 -0.18973014 -0.081084922
0.96472025 -0.18966685 -0.080526903
0.89520478 -0.0021542697 0.026324175
0.91304982 0.023800118 0.026108524
0.87334925 -0.027273068 0.0070003588
0.91175622 0.048123788 0.021713408
0.89116424 -0.024957376 0.0058218306
0.88316709 -0.016404852 0.014591937
0.90555674 0.057343215 0.010279916
0.87706494 -0.028559126 0.0067353114
0.86799282 0.051339086 0.026497249
0.82531208 0.0090144947 0.001119133
0.83754063 0.036209092 0.0048555611
0.8832444 0.05207523 0.023383908
0.83883965 -0.0047640563 0.0063771182
0.90811074 -0.0056205816 0.018224245
0.83710611 0.0304338 0.0044938456
0.86372632 0.085578911 0.0011735974
0.83439648 -0.0091573577 0.0024187092
0.91684288 0.012006563 0.022097791
0.86398464 0.048787031 0.026339477
0.89337492 0.065749958 0.0055179074
0.893076 -0.01932798 0.0080179563
0.90770733 -0.0081083961 0.013229222
0.91170782 -0.0033681905 0.017699383
0.9560163 0.03578756 0.00099849375
0.92761576 -0.034036908 0.0017361741
0.94242853 -0.019152444 0.001626147
0.94672799 -0.01241368 0.0012007733
0.93688077 -0.18899469 -0.081992008
0.87308526 0.052384652 0.026484886
0.82481462 0.015991913 0.001543873
0.90345907 0.069823891 0.0068585784
0.8397578 0.035367686 0.017777789
0.86863935 -0.044450436 0.001316239
0.86911637 -0.024150556 0.0068763546
0.86386234 -0.024349988 0.0070135472
0.90788621 0.010560961 0.026266916
0.86929548 0.090283684 0.0011100568
0.85523534 0.059203058 0.011455143
0.82477438 0.0053025647 0.00096615165
0.84503233 -0.012904174 0.0063226037
0.90278083 0.0014317519 0.026462663
0.87267858 0.053864535 0.025969474
0.89488423 -0.016905872 0.0095510492
0.87248796 -0.023485139 0.0067794546
0.86450398 0.058966037 0.021651844
0.84998298 0.030842036 0.026915146
0.83785105 0.054551147 0.00043614517
0.87333137 -0.046049338 0.0012485994
0.88349938 -0.018650014 0.012520337
0.8985014 0.045911856 0.026352838
0.85640085 0.0041035968 0.024604125
0.85828668 -0.013814084 0.012667833
0.90834552 0.020401321 0.026564965
0.85827374 -0.019252641 0.0071807993
0.92177922 0.025287706 0.016295131
0.91270238 -0.0040499666 0.012766647
0.92717755 0.020537248 0.0060215597
0.89877528 -0.0005565657 0.026634591
0.8835631 -0.0074666636 0.026236998
0.9070099 0.0052904128 0.026421798
0.88851386 -0.0063977619 0.026302898
0.87320632 -0.034087572 0.0022850435
0.89889652 -0.0043793758 0.025936989
0.87842447 -0.024098404 0.007073544
0.90374744 -0.0023916967 0.026123749
0.90766346 0.00035790069 0.02598419
0.86794305 0.065589376 0.0044686119
0.88791174 -0.018648136 0.012974107
0.89441979 -0.015886139 0.013379139
0.87317538 -0.039621234 0.0012411413
0.93351197 -0.029243037 0.001713928
0.90783352 -0.043647185 0.0019730229
0.91820478 -0.039405346 0.0020184093
0.83430463 0.020333076 0.0075809741
0.90374845 0.040590819 0.024928207
0.91006649 0.047199674 0.018554678
0.82476091 0.025326231 0.0016931506
0.83399177 0.015864665 0.0075468174
0.82470864 0.030408761 0.0015288227
0.88879454 0.052166604 0.027853921
0.92220455 0.056167614 0.0060378625
0.85839391 -0.02822537 0.0064172191
0.93840677 0.065466605 0.0026204924
0.84818172 0.047564726 0.015500559
0.91910785 0.060644142 0.006579794
0.81884485 0.045068603 -0.0007647
0.86909568 0.059955295 0.021772638
0.94332922 0.059990972 0.0019921625
0.84305012 0.060802665 0.00036359316
0.95637143 0.029444028 0.0017690017
0.85790247 0.074735165 2.2912238e-05
0.93314236 0.06027025 0.003125686
0.94785315 0.054989271 0.0017154132
0.94166183 0.068632931 0.0012331277
0.91363913 -0.025897799 0.00067576038
0.91004628 -0.012485703 0.00078802591
0.88818288 0.09444762 0.0018658004
0.89428324 0.061382465 0.013512794
0.91238844 0.065156177 0.0058998992
0.94803655 -0.0065879528 0.00054536934
0.91875291 0.055801097 0.0062302705
0.91686136 0.045618724 0.01177819
0.86393571 0.062300485 0.0044236891
0.87801743 -0.039047044 0.0011256814
0.91131383 0.074722946 0.00070648466
0.89917392 0.046041179 0.024535054
0.8373192 0.01622556 0.0088909157
0.82375002 0.021022694 0.0014029202
0.91385412 0.042266741 0.017976284
0.85326558 0.076060273 7.677184e-07
0.89258879 0.094587587 0.0013588652
0.89850807 0.061712716 0.008056364
0.83332688 -0.0046760831 0.0016657758
0.93760055 -0.024470333 0.0014336649
0.84990114 -0.032552138 0.00090958655
0.90179336 -0.0081394762 0.022721237
0.89188695 -0.013233625 0.022212405
0.86320609 0.065934084 0.0043162438
0.8489247 0.049895331 0.018399416
0.89531821 0.047802284 0.026334016
0.90809751 0.015780251 0.026275838
0.83869976 -0.019396832 0.001814621
0.95672828 0.021678092 0.0017597455
0.84189111 0.020344589 0.020379826
0.9271872 0.049585275 0.0061674966
0.84493095 0.044976532 0.018011902
0.86289364 -0.019213935 0.0081529077
0.84968048 -0.037793696 0.00079379999
0.82875288 0.0060326881 0.0017758033
0.83580351 0.0056500817 0.0066966834
0.90294784 0.051860638 0.019835005
0.83895439 0.00058073807 0.0071100881
0.86881912 -0.014175014 0.018855041
0.86864978 -0.018085632 0.012472128
0.84678602 0.0041388907 0.019957293
0.90571737 0.014093388 0.025322895
0.87307507 0.067106269 0.0047859084
0.84494233 -0.023603816 0.0016613046
0.83318251 -0.013982801 0.0010421711
0.92149121 0.011005557 0.012484462
0.90400255 0.0093272459 0.02654874
0.90300286 0.005617368 0.02691056
0.85394984 -0.033905651 0.0013719953
0.85183239 -0.006936965 0.013014323
0.83320737 -0.018598845 0.0010038052
0.89836419 0.0038280315 0.025439108
0.85799581 -0.0094840527 0.017946063
0.85424286 -0.019233143 0.0063902475
0.83858258 -0.023554279 0.0013010011
0.86307931 -0.015175949 0.013461466
0.8485952 -0.02365653 0.0016312856
0.85376209 -0.029105384 0.0013881032
0.84336334 0.070973299 -0.00086339243
0.62924242 9.4589806e-05 -0.091270946
0.87846476 -0.0058238697 0.024640571
0.8631596 0.084755138 -0.00022166206
0.83828503 0.0058407541 0.0083144568
0.88341391 -0.044937428 7.561408e-05
0.89797449 -0.018461289 0.0073069339
0.81820506 0.030157987 -0.00085414882
0.86204433 0.062122114 0.0064968714
0.88262516 -0.035380032 9.1372218e-05
0.89826614 0.056075316 0.019544678
0.87834901 -0.04904633 -8.6716456e-05
0.89267033 0.074310146 0.0062349699
0.87269944 0.061668407 0.019019824
0.88812506 -0.040327772 0.00029990901
0.87333077 0.0596352 0.022318065
0.91802073 0.075337976 0.0026831874
0.88842249 -0.029713133 0.003149556
0.89390093 -0.049849536 -0.00042537332
0.82313156 -0.014885556 -0.0014038738
0.82277322 0.025305569 4.3352888e-05
0.88775378 -0.011391505 0.020351836
0.83823168 -0.024961775 -0.00079213805
0.84893632 -0.0091481898 0.0078054955
0.81348187 0.050546933 -0.001231955
0.82948261 -0.010827595 0.0010723218
0.8783325 0.084687077 0.0013551158
0.8372879 0.050497007 0.00052978378
0.89808649 -0.04020153 0.00051214168
0.89293242 -0.014649934 0.017828407
0.9135831 -0.043384794 0.0014409677
0.8284272 0.030300474 0.0020199532
0.85329527 -0.039723258 -0.00087572949
0.96373653 -0.192632 -0.080563977
0.88432783 0.090407662 0.00016047755
0.82792819 0.050583992 -0.00049693859
0.91837937 -0.019357266 0.0020717073
0.90858138 0.064908892 0.004691232
0.88816214 0.085212812 0.0018740185
0.92322874 0.0551387 0.0040599089
0.87348652 -0.0096256435 0.023840213
0.88858914 0.070579551 0.004660693
0.90076065 -0.0098887077 0.014643329
0.88866252 -0.0054393448 0.024189617
0.86071402 -0.012819697 0.016970331
0.90712512 0.049580004 0.022727795
0.8533234 0.0054321107 0.023771012
0.85392642 0.065185055 0.0034041554
0.91936737 0.040393502 0.00778803
0.89800489 0.054844212 0.023005316
0.87862873 0.09034697 0.00019296618
0.87377828 0.064475864 0.012387825
0.8286041 0.00035030697 0.0014281351
0.91212672 0.048099354 0.017057156
0.85735101 0.0456664 0.024376152
0.89841354 0.090636291 0.0018885722
0.84486532 0.069158971 0.0011110085
0.92411947 0.015446769 0.0076563368
0.95299137 0.01464752 0.002049132
0.87470758 0.094765246 0.0012928566
0.90933442 0.055411372 0.008705412
0.90788919 -0.025056755 0.0019612168
0.9090746 0.020769332 0.024805501
0.87787312 -0.013840724 0.022948807
0.82288724 0.00017951232 -0.00037302222
0.89858299 -0.039379749 0.0015840089
0.8038643 0.02529804 -0.0022819189
0.92368406 0.045334857 0.004749923
0.89312053 -0.0049987803 0.024359323
0.8471598 -0.005287685 0.0091984011
0.81019366 0.036027487 0.002371768
0.84325469 0.085448131 -0.0012579167
0.93776906 0.07297875 0.000945504
0.91682273 0.015565438 0.023949195
0.94801009 0.040058259 0.0029163964
0.84807312 -0.015153265 0.0039309585
0.84372634 0.059657112 0.0023428132
0.90353799 -0.044389248 0.0016688112
0.84257644 0.04597434 0.0090071755
0.93861431 0.02965628 0.0023718467
0.84338248 0.05549879 0.0030512693
0.88363373 -0.047848996 0.0013700196
0.90847063 -0.039462421 0.00055323273
0.85847455 0.065677606 0.0042454964
0.93855894 0.039938379 0.0026236281
0.84822476 0.010576179 0.023330135
0.84782362 0.050850067 0.013097917
0.8294605 0.040047552 0.0016090946
0.83390999 0.045191128 0.0020992307
0.8683241 0.063794076 0.012585883
0.92441428 0.0099653043 0.0047122869
0.95272082 0.034426793 0.0018837503
0.83780771 -0.00017260402 0.0038841174
0.82729036 0.00013261524 -0.00023431891
0.86759681 -0.0056905439 0.024008036
0.83988672 0.020398397 0.017948782
0.88372958 -0.0061557381 0.025811719
0.90355784 -0.014519737 0.0081507238
0.96085572 -0.18661927 -0.08094497
0.92814994 -0.029793244 0.0018494233
0.86851925 -0.044513863 -0.00035423297
0.93771887 0.070187598 0.0022122399
0.9486782 0.029958582 0.002868074
0.8235997 -0.020228595 -0.002004798
0.86809719 -0.020167163 0.0054861517
0.91268528 0.079751924 0.0026743552
0.87850767 0.055436037 0.023639275
0.89824659 -0.034603283 0.0014914196
0.81397408 -0.0097335102 -0.0027212612
0.84898329 -0.020033395 -0.00030863841
0.82896006 0.035055149 0.001700735
0.86804014 0.055656318 0.023396434
0.85676736 0.056579109 0.014949563
0.93294775 0.049845595 0.0024223838
0.86783332 0.084750377 6.512447e-05
0.8280406 0.055334568 -0.00078128348
0.8432653 0.040146489 0.01803866
0.85868073 0.075270541 0.0017352807
0.82366502 0.035096429 -0.00016045716
0.88320917 0.075275309 0.0040732631
0.84904408 0.049314767 0.021803387
0.90735137 0.059717275 0.0068859626
0.85853165 0.063382193 0.0068132458
0.83352667 -0.020186016 -0.001025439
0.83850008 0.06045847 0.00013479336
0.8285827 0.025371751 0.0027690092
0.86312151 -0.0043496913 0.023717009
0.83720708 0.0049064904 0.0044421894
0.83208382 -0.0095396498 -1.0011247e-05
0.88355249 0.084695384 0.0015228547
0.90827399 0.064854555 0.0062187277
0.87864822 -0.017434649 0.018968292
0.87326348 -0.015030438 0.019375151
0.95275021 0.044903614 0.001282288
0.87341046 0.051683363 0.023722906
0.84312928 0.074944958 -0.0006122514
0.94331253 0.025240766 0.0027364795
0.94890219 0.044677075 0.0022354287
0.86868423 0.079719335 0.0018591664
0.83719498 -0.011315291 0.00038014117
0.87746161 0.068526715 0.006816831
0.95297319 0.030424738 0.0019013042
0.82850152 0.05998183 -0.00087967509
0.87875587 0.07462395 0.0041225222
0.81299937 0.030259619 -0.00075786584
0.81317937 0.045274638 -0.00091019255
0.88337278 0.055163112 0.023788497
0.88896918 -0.021355024 0.0040618847
0.92874801 0.030442236 0.0046494347
0.87699002 0.074743114 0.0059291893
0.80827415 0.040282879 -0.0014186751
0.88753223 0.089910321 0.0018388133
0.82317185 0.019827604 -3.6731584e-05
0.88314962 0.063775294 0.018128239
0.95623398 0.013636314 0.0017036452
0.9333607 0.025026351 0.0034463429
0.95312643 0.0053354986 0.0019132198
0.92851037 -0.019436648 0.002278432
0.82854766 0.019909261 0.0024934444
0.88809341 -0.044388629 0.00024003969
0.89330995 -0.024583345 0.0042656506
0.90855336 0.070329621 0.0037671183
0.85923511 0.058612727 0.01787876
0.90341324 0.070578329 0.004405051
0.86779225 0.090228513 -6.061533e-06
0.92027026 0.035475809 0.008248223
0.87816811 0.065204188 0.012999536
0.85353005 0.044684552 0.02410692
0.86819994 -0.027921218 0.0059892386
0.85226953 -0.010667587 0.0090778712
0.90796626 -0.035207305 0.0018725563
0.84402168 0.00070753024 0.013241871
0.81802982 0.037348814 0.00080261793
0.93820053 0.045273546 0.002419933
0.88815027 0.054674599 0.026392942
0.85316062 0.070014097 0.0020669731
0.92879939 0.025524668 0.0048787966
0.84004045 0.0064687445 0.012222948
0.8681491 -0.035574917 -1.9847237e-05
0.93804419 0.019860551 0.0028266455
0.80833817 0.035310525 -0.0013926178
0.85297883 0.04044991 0.024194043
0.89868844 -0.010988817 0.018248839
0.90775812 0.0099661564 0.024974421
0.85017884 0.053680465 0.013146632
0.93767327 -0.00021696156 0.0019709731
0.84073204 0.021995844 0.022572447
0.88288212 -0.021632168 0.0048593814
0.86198694 0.04674378 0.026568776
0.94822407 -0.0049944022 0.0019790488
0.91305077 0.040217452 0.022627518
0.83382189 -0.029758539 -0.0015219969
0.90255886 0.054674275 0.022274902
0.83880419 0.085140169 -0.0015340004
0.85131866 0.01442913 0.024788564
0.93334246 0.03021159 0.0031900827
0.84835982 0.064566404 0.0026171631
0.92826927 -0.010200968 0.0018742948
0.94290996 0.0004880777 0.0022466041
0.94386744 -0.015953636 0.0004037802
0.88788915 -0.034717303 0.00025465459
0.92235225 0.084745482 0.0012568911
0.92867541 0.001050233 0.0035010423
0.81866336 0.064966589 -0.0017664798
0.8938278 -0.011509721 0.019812312
0.91661596 0.0011861587 0.012262386
0.94333601 -0.0050836075 0.0023322371
0.85340136 0.056297433 0.01302678
0.83482331 0.030483345 0.007295398
0.84873796 0.073818527 0.00098014215
0.91338438 0.065898418 0.0040138052
0.82866734 0.043793842 0.0011455673
0.89818633 0.058572046 0.02173524
0.91847712 0.080084503 0.0024822478
0.93281817 -0.0098356511 0.0019650878
0.86820316 0.051026493 0.024197029
0.89360899 -0.044480592 0.00017511151
0.91205883 0.060002696 0.0063173524
0.90653425 -0.018839089 0.0061016916
0.91314369 0.0705323 0.0028770971
0.88361466 -0.015483763 0.018286437
0.89308155 0.069279686 0.0063770316
0.89760971 -0.01337145 0.018217247
0.86318099 0.070240863 0.0036084475
0.88828021 -0.034953728 0.0016402074
0.87793803 0.079532184 0.0023599498
0.91959149 0.004695443 0.0053490722
0.82859898 0.04912601 0.001111593
0.84303725 0.036043759 0.019025551
0.89741963 0.062863074 0.011670222
0.82351285 -0.024595549 -0.0028147502
0.82328749 0.014930297 -1.3784583e-05
0.84308952 0.045142032 0.012338195
0.9282276 0.075052395 0.00071974436
0.84674311 0.051258139 0.0091132428
0.92821628 0.0055306437 0.0035872287
0.91314721 0.045078419 0.018840116
0.832789 0.035170343 0.0039659673
0.91142917 0.0025762946 0.023523249
0.94314748 0.020333866 0.0026769557
0.85700715 0.040116966 0.023904741
0.84686226 0.035679501 0.020699777
0.89432973 0.062813409 0.016392721
0.82383871 0.033583503 0.0016722202
0.93820232 -0.0096311467 0.0022159279
0.89864624 -0.048128426 0.0012151417
0.92196304 0.040187243 0.0070726248
0.92805827 0.060108904 0.0026325805
0.86355221 -0.039793894 0.0014443221
0.93836796 -0.014747994 0.0018194335
0.80367869 0.034809094 -0.0028329364
0.8476693 -0.040109247 -0.0014705103
0.91370368 0.03027026 0.02441844
0.92418319 0.025070619 0.0079948213
0.9278152 -0.0048825233 0.0026480632
0.95339793 0.0096667856 0.0019454368
0.83851802 0.060297888 0.0016407841
0.8136754 0.02181451 0.0017295233
0.83779669 -0.029562984 -0.0012036333
0.87333614 0.086879753 0.00029779915
0.92844683 0.045667969 0.0039429041
0.91844559 0.060321733 0.0038627849
0.92844337 0.050466068 0.0034526563
0.90833235 0.030703967 0.026128503
0.85697579 -0.016356472 0.0043225931
0.89792365 0.085064709 0.0019657488
0.86765057 -0.030768314 0.00038056439
0.85448998 0.074197866 0.0017076277
0.83909893 0.034692403 0.013448947
0.8384608 0.050360259 0.0030126066
0.85321349 -0.019793982 0.0039361459
0.91329819 -0.01949426 0.0024957326
0.92806822 0.079450101 0.0017179612
0.93356633 0.00026198738 0.0025032433
0.88843161 0.055377677 0.023398442
0.83822602 -0.034633901 -0.0019288131
0.82823986 -0.019691689 -0.0012052348
0.86852568 0.06102898 0.018712983
0.8630935 0.074705802 -0.00091106177
0.87823355 0.060146119 0.022748733
0.90351665 0.060240597 0.0081361812
0.82868427 0.010232357 0.0021310286
0.87329096 0.080174536 0.0019491836
0.92673051 0.062512904 0.00053199078
0.93298578 0.075319216 0.0015231267
0.91355652 0.015170949 0.024104681
0.95155895 0.0004339244 0.0013316792
0.87789917 0.061431594 0.018141445
0.82792073 0.0047855368 0.00025356535
0.85847604 0.059619326 0.01297799
0.84829932 0.034951899 0.02382201
0.85947013 -0.038246788 0.0012451017
0.9433735 0.030150553 0.0025550376
0.91471732 0.0043736151 0.018334828
0.92790741 0.010066153 0.003571352
0.95338321 0.019733313 0.0019880494
0.83327323 0.060538098 -0.000446808
0.90915793 0.015381557 0.024638288
0.84364784 -0.019168258 0.0022567578
0.84820509 0.070905998 -0.00011618488
0.89370656 0.080185063 0.0025152205
0.92381877 0.036424179 0.0047799749
0.87291878 0.0951901 -0.00052736269
0.90806937 0.054861672 0.012536719
0.946904 0.060324911 0.001248418
0.8545903 -0.0041458085 0.021645835
0.8834182 0.090146393 0.0015282196
0.92280859 -0.019789014 0.0022004806
0.89307314 0.06534376 0.0078589572
0.94341224 0.055024374 0.002627189
0.86722177 0.061766598 0.015572389
0.88821024 0.069880262 0.0070064026
0.85797942 0.056145474 0.018419871
0.84302682 -0.0099295657 0.0034445485
0.83952349 0.025331892 0.018096017
0.91810662 0.069854736 0.0026599541
0.8345018 0.059525099 0.0011751524
0.90279293 -0.0094650313 0.017894574
0.84838492 -0.029504022 -0.00034709301
0.84872103 0.058184881 0.0070358254
0.90308821 0.093890026 0.0018035268
0.84826648 0.059784062 0.003444771
0.9383921 0.025486832 0.0025224001
0.86897784 -0.039794482 0.0014482767
0.91390616 0.05562304 0.0046722055
0.85576838 0.064634569 0.0059589804
0.89832777 0.075302608 0.0033947516
0.92431021 0.018701699 0.0051916512
0.9085179 0.075120091 0.0025401576
0.8287918 -0.030284027 -0.0028042749
0.92297739 0.045668755 0.0061064493
0.92195219 0.019944409 0.012629264
0.82757723 0.035322141 -0.00051165465
0.85376346 0.054567669 0.017478645
0.84270024 -0.00017472013 0.0086623169
0.80869526 0.050114904 -0.0023249388
0.89357466 0.070364706 0.0047690477
0.85344136 -0.044942554 -0.001799794
0.84744811 -0.010385701 0.0044744522
0.8731544 0.066123962 0.0082252705
0.92341173 0.050663806 0.0062330011
0.89860582 0.059589338 0.018004457
0.92294967 -0.0044416264 0.0032750359
0.80866289 0.025134331 -0.0011646326
0.84205949 0.015566615 0.019295126
0.87285036 0.084660299 0.0012783912
0.90830022 0.040238496 0.024488419
0.88365066 -0.024456028 0.0065123928
0.94797206 0.050059937 0.0019151312
0.85001296 -0.0039106216 0.017921761
0.90467697 0.010021788 0.024173062
0.86763108 -0.016584028 0.01371116
0.85171247 0.035765272 0.02451284
0.86816764 0.068365075 0.0064511136
0.91849452 0.048581902 0.0065673981
0.90875494 -0.029066017 0.0016409236
0.90282184 -0.0049371463 0.024113109
0.86741972 -0.017021559 0.010134313
0.83281666 0.014982996 0.0038255914
0.91359776 0.024965243 0.024699979
0.90369654 -0.044859972 0.00024915856
0.9132939 0.075171866 0.0026043379
0.88899922 0.0669984 0.0053188507
0.83708489 0.020593919 0.0085040908
0.87717879 0.066383637 0.004303663
0.85325551 -0.024477836 0.0027540149
0.83799481 0.045621399 0.0040138057
0.90129501 0.046064798 0.026986061
0.90842664 0.0048452374 0.024605427
0.92061394 0.042769399 0.0041320231
0.85212535 0.051338434 0.019246394
0.85912049 -0.031001152 2.7245174e-05
0.83455962 0.011234825 0.0073861484
0.88826519 0.063717782 0.017032875
0.81814343 0.060179826 -0.0011807648
0.88809043 0.064497255 0.012449335
0.84792781 0.056561373 0.0043151295
0.94368321 -0.0098263957 0.0018887513
0.87428427 -0.02411806 0.0005960323
0.80801058 0.015387415 -0.0015855773
0.89295465 0.059242759 0.02222424
0.88353169 0.066335507 0.0084493291
0.85355896 0.059658136 0.0075995242
0.88316196 0.05927195 0.022929538
0.85869354 -0.0052120443 0.022651734
0.91130686 0.016236961 0.026165977
0.87828106 -0.030283252 0.0026230009
0.82823175 -0.010153876 -0.00033181094
0.93848324 0.010230928 0.0023718597
0.91553414 0.047157813 0.0091110328
0.86161768 -0.00049094902 0.024018278
0.89874959 0.070786551 0.0046577952
0.82317072 0.04990435 -0.0007152246
0.90685791 0.054503795 0.017106535
0.90350461 0.090577587 0.00016192823
0.8835007 -0.029151907 0.0027046492
0.91851681 -0.040513158 -0.00036651027
0.94815838 0.015549744 0.0024119539
0.81347287 -0.0048516248 -0.0023142889
0.90343237 0.054890104 0.0184051
0.88324553 -0.0098714242 0.024356505
0.89851594 0.060902312 0.013847952
0.83247048 0.030261826 0.0043070791
0.88857895 -0.050390083 -0.00065606931
0.92465693 0.015248179 0.0040699132
0.84828317 0.020582417 0.023765299
0.8834188 0.064919166 0.012741053
0.88775712 0.075232632 0.0041182744
0.842722 0.050773155 0.0045378772
0.91200358 0.049993318 0.012970822
0.85047603 0.037677873 0.025859129
0.80835497 0.010257546 -0.002097741
0.83855397 0.055285886 0.0016426056
0.88959467 -0.03945151 0.0016758139
0.89818853 -0.024705427 0.0038624608
0.90425313 0.041606426 0.025993617
0.88383049 -0.040466815 0.00027974686
0.83487707 0.035487328 0.0064241849
0.8409642 0.042452984 0.010050947
0.89792019 0.065222114 0.0070335036
0.9139058 -0.039847974 0.00034622502
0.91663021 0.034735538 0.022398723
0.86276186 -0.010573995 0.019520348
0.8181932 0.02465892 -0.00033242555
0.86333746 -0.024628475 0.0037079158
0.84339297 0.080212913 -0.0006533945
0.93360585 -0.0044130455 0.0021379255
0.87332052 -0.03986026 -0.00018944626
0.92312306 0.069869168 0.0024341969
0.91844964 0.015027261 0.018674124
0.84200794 0.0052675176 0.013328011
0.8931753 0.085384429 0.0020213386
0.90378082 0.084787406 0.0022793119
0.85302877 -0.011930791 0.0055101854
0.91538221 0.0042274869 0.013990755
0.83309126 0.020358253 0.0039340938
0.89804518 0.091322646 1.2400244e-05
0.87863958 -0.040313516 0.00028219449
0.90423453 0.035390932 0.025932487
0.8981204 -0.014756382 0.012812589
0.88327724 0.069367625 0.0067254477
0.81792593 -0.0048876586 -0.0011279599
0.93360424 -0.019992582 0.0021284334
0.83978862 0.076408438 0.00081215968
0.93765253 0.014753031 0.0024203025
0.92844707 0.015106957 0.0042115557
0.87329632 -0.020723905 0.0083854562
0.88311118 0.060746145 0.018280337
0.94339406 0.050578564 0.002604316
0.86839694 0.075396448 0.0030760122
0.9086895 0.025670616 0.025012732
0.92377335 0.030149614 0.0072160377
0.81827456 -0.009812627 -0.0014338358
0.80376971 0.030596668 -0.0027317554
0.91263986 0.0058431448 0.023194684
0.9078334 0.051030613 0.018425496
0.94314986 0.035258062 0.0028585885
0.82335097 -0.0045327907 -0.0003481337
0.92039931 0.020152066 0.0142505
0.91776699 0.025436725 0.023793383
0.91300529 0.00066666165 0.019428074
0.84815603 0.085828371 -0.0012873384
0.88311803 -0.024558976 0.0038136775
0.85780191 -0.020708939 0.0040848977
0.94844443 0.0099310521 0.002410833
0.88308358 0.07968872 0.0022218472
0.91754019 0.088169642 0.0018628255
0.87037963 -0.00501461 0.026618799
0.82326031 -0.0098865721 -0.00080541772
0.91362262 -0.029708697 0.00052649732
0.83235651 -0.034239914 -0.0026638338
0.93340909 0.0056242016 0.00259327
0.85803246 -0.035600103 -0.00036765024
0.90371001 0.061652083 0.0043910462
0.92038608 0.009261352 0.01002204
0.81783748 0.042980812 0.0011085327
0.90823144 0.085002676 0.0020969396
0.85907447 -0.032997597 0.0013194128
0.94300109 0.01476918 0.0024565093
0.81289881 0.0052764914 -0.0015115337
0.84870732 -0.01963949 0.0029580588
0.92828703 0.040171772 0.0046614804
0.83282632 0.025247065 0.0041709463
0.85866958 0.054485627 0.022126021
0.90310723 -0.031140804 0.00057710882
0.8274042 0.030990077 -0.00054768618
0.85855943 0.090376467 -0.00091965805
0.88351023 -0.044849534 0.0016483035
0.83658332 0.026134532 0.007697993
0.9033339 0.00012425912 0.024832038
0.81299597 0.020496393 -0.00091444125
0.81300181 0.014775795 -0.00086293032
0.83333462 0.054822713 0.0013454921
0.93847352 0.050421078 0.002808114
0.84808427 0.025486698 0.024099287
0.8412953 0.0046433383 0.0093831914
0.8493185 -0.013832852 0.0067433068
0.84842461 0.030366484 0.024378091
0.83746213 -0.014738054 6.8703339e-05
0.83352983 0.040075403 0.0031270487
0.92803675 0.05522972 0.0025230474
0.90380806 -0.019991405 0.0042681731
0.81834167 0.015131088 -0.00044532676
0.92395049 -0.0092862612 0.0025203065
0.80780286 0.020193674 -0.0015348917
0.90339589 0.065709367 0.004844116
0.93848282 -0.019577665 0.0016835189
0.86347586 0.078441888 0.0015110298
0.91265774 -0.0085389242 0.0066066324
0.92825234 0.075393684 0.0026411321
0.81734455 0.038510885 0.00096613879
0.93341786 0.040364418 0.0029638095
0.93317056 0.044898652 0.0025274034
0.87818635 -0.015717704 0.018361896
0.87915343 -0.021667441 0.0050184671
0.91143388 0.044363998 0.022625625
0.89819109 0.07160449 0.0068136081
0.83311564 -0.014998679 -0.00048403325
0.90357143 -0.040807005 0.00055047544
0.84832186 0.065662503 0.00018732398
0.86277109 0.061400205 0.013811424
0.90699452 -0.0029826476 0.023451358
0.89845383 -0.044157974 0.0016843124
0.86831677 -0.0099096186 0.022943994
0.84867424 0.081098802 -0.00061745796
0.82806778 0.039902546 -2.3376624e-05
0.84654385 -0.00069094071 0.013845662
0.88813281 0.06100117 0.018618314
0.92308199 0.035080068 0.0070229615
0.89139491 0.081348591 0.00056437781
0.89310181 -0.021213518 0.0049269069
0.89794403 -0.045253709 0.00039347453
0.90879887 -0.015400572 0.004170096
0.80888027 -0.00010634912 -0.0027589696
0.93853933 -0.004977033 0.0022134827
0.89822733 0.065471068 0.0050524408
0.89348894 0.055000596 0.02275517
0.853715 -0.029971464 -0.00030642058
0.89828235 -0.0048016743 0.024161244
0.86346728 0.05649931 0.019418634
0.87311375 0.07504826 0.0038137734
0.90307701 0.059044328 0.012313298
0.82719201 0.010003518 0.00031664112
0.91368556 -0.0051984158 0.0073170899
0.92342532 -0.01450948 0.0022176299
0.87786996 0.096092425 -0.00065216585
0.89293534 0.064219721 0.012555398
0.88331938 0.070102781 0.0045957463
0.91838866 0.020815462 0.018013427
0.83360785 0.065163054 -0.00027428247
0.83957297 0.015376671 0.017120294
0.92323047 0.010676911 0.0072959117
0.92269945 0.065429293 0.0028665026
0.94801313 0.025091954 0.0028353762
0.88339591 -0.049997032 -0.00046597587
0.90992796 -0.005935424 0.013386858
0.8182655 0.040397063 -0.00095526833
0.91912168 0.0092638955 0.013097404
0.80935204 0.055439048 -0.0025294772
0.91880023 -0.024403188 0.001990898
0.90417403 -0.035189047 0.00047318981
0.89321876 0.050463386 0.024163524
0.86810821 -0.024899468 0.0030227092
0.91346079 -0.014385674 0.0033304263
0.88378876 -0.020741904 0.0082217148
0.87858468 -0.0094861146 0.024244661
0.84296256 -0.0047081895 0.0047741402
0.89258397 0.090220578 0.00033940919
0.91364253 0.060808629 0.0047470992
0.8423683 0.030611733 0.018943053
0.88849443 0.090323165 -1.6509688e-05
0.82848406 -0.014671018 -0.0010872348
0.90448409 0.0049585858 0.024821552
0.89816439 -0.0091577386 0.023429658
0.86860025 -0.050155662 -0.0013833643
0.83630693 0.014464797 0.0047829784
0.90869898 0.029903954 0.024894863
0.87816459 -0.0249996 0.0036894171
0.89323652 -0.035182223 0.0016754306
0.918163 0.085438833 0.0014619046
0.89825803 0.050702691 0.024055038
0.83750117 -0.019679537 -0.00050775928
0.90914977 -0.01175624 0.0046977401
0.89816916 0.080216415 0.0023907637
0.84795314 -1.4953247e-06 0.018299073
0.86358118 0.05019927 0.024400461
0.8397184 0.030138034 0.018225858
0.92303854 0.080516592 0.0020173886
0.94350547 0.0099039488 0.0022189103
0.87323529 0.090746999 -0.00023524355
0.86391288 -0.042637568 0.0016071405
0.90354276 -0.011309125 0.012979556
0.86324269 -0.044625171 -0.00032009007
0.93428457 -0.1889402 -0.082585797
0.88905483 -0.014675567 0.018611746
0.93988925 -0.013753259 0.00077834702
0.90361416 0.045567799 0.024498651
0.91807151 -0.014868682 0.0023370467
0.84533316 0.080813482 0.0018652446
0.90844905 0.035775065 0.024861077
0.86613852 0.077301703 0.00045069342
0.90266836 0.058003515 0.016967298
0.91377801 0.010225472 0.023739997
0.93303853 -0.014676617 0.0019186814
0.87364668 0.089721113 0.0012106491
0.91357303 0.02026109 0.026222369
0.91384637 -0.030321566 0.0016738069
0.89346915 0.050907541 0.026623473
0.91860491 -0.004457274 0.0042948984
0.86269933 -0.029481396 0.0023564678
0.9429189 0.064169332 0.0019442508
0.86297613 0.074590623 0.0030097922
0.84809273 0.069951609 0.0015807516
0.85664815 -0.010973819 0.013232595
0.90415329 -0.015934158 0.0047279093
0.91792494 0.045320734 0.0079578888
0.91380209 0.050517727 0.0081833079
0.88371086 0.052272379 0.02650566
0.89323795 0.059894376 0.017791722
0.89798194 -0.029790841 0.0019781392
0.8534351 -0.03456464 -0.00033974106
0.84745866 -0.025155598 -0.00037347063
0.91739184 0.020561762 0.023562698
0.90861505 0.00010476571 0.023697477
0.93345761 -0.024887724 0.0018935783
0.81855488 -0.014383826 -0.0023296284
0.87368798 0.063796774 0.017522464
0.86328572 0.089961044 -0.00031828976
0.81335515 -0.00024433594 -0.0015233005
0.91328394 0.084680006 0.0023910925
0.89383024 -0.0044729179 0.026063178
0.83378851 9.8455501e-05 0.0028609938
0.90312243 0.050177008 0.023737079
0.91811973 -0.0094414568 0.0034316659
0.88872665 -0.020034287 0.0084277382
0.88854635 0.07966055 0.0024600464
0.94818467 -0.00021286905 0.002057618
0.88309318 -0.0057153306 0.024540259
0.80375314 0.014742113 -0.0028415364
0.91532344 0.051474564 0.0047706473
0.93160671 -0.033269789 0.00084664224
0.89688188 -0.012626501 0.021636438
0.94368899 0.0052643656 0.0027060835
0.91810203 0.041613307 0.013067777
0.89282155 -0.03964312 0.00046145145
0.90316641 0.075171843 0.0028075387
0.87354517 -0.045731675 6.3755768e-05
0.85791743 0.08011023 -8.6814827e-05
0.85799599 0.08516679 -0.00056787208
0.84425271 0.015119801 0.02238862
0.86378139 0.062955618 0.012148224
0.88685501 -0.0075511299 0.026388181
0.92358327 -0.0342688 0.0017976437
0.83385605 0.048951514 0.0020296606
0.82315159 0.055553321 -0.0012159062
0.86363286 0.054874185 0.023062754
0.86763817 -0.04032857 -4.1582578e-05
0.87337333 -0.024493666 0.0038192025
0.92500758 0.024520678 0.0045083188
0.85336262 0.090318143 -0.0012988801
0.92293608 0.0601734 0.0032536339
0.8525092 0.067160733 0.00061216421
0.85800368 0.069940709 0.003086322
0.85800117 0.060614038 0.0090945205
0.90287274 0.065137997 0.0062931562
0.85322011 0.04949411 0.022359332
0.8532179 0.08505325 -0.00058384886
0.85314053 0.080396652 -0.0004805979
0.87377375 -0.049731091 -0.00073663623
0.9217127 -0.037944995 0.0016927398
0.84316295 -0.025403876 -0.00031627333
0.84784687 0.045920197 0.018926213
0.85276562 0.061162032 0.0036468734
0.83971298 0.039450075 0.011745318
0.85323203 -0.0053497097 0.018566309
0.84916949 0.0057431194 0.022632336
0.82379448 0.065157346 -0.00096255558
0.81805867 0.055327345 -0.0013898549
0.82297057 0.010275109 -0.00030986263
0.92819852 -0.014405491 0.0020132535
0.82317144 0.04024956 -0.00092276843
0.91465265 -0.0056608161 0.0038130153
0.8430748 -0.039586823 -0.0014680428
0.92404598 0.005036423 0.0042477804
0.86283296 -0.021070009 0.0044241608
0.8624143 -0.026833616 0.00060621777
0.93810415 0.034980044 0.0023586648
0.83797443 0.075702615 -0.0010463494
0.86336142 -0.030656017 -6.0362038e-07
0.84094453 0.013592121 0.01514421
0.8889147 0.086076535 0.00019116528
0.91299248 0.029295627 0.026274795
0.84390175 0.034892149 0.022818895
0.86294186 -0.035163332 -0.00022390331
0.81287879 0.060385372 -0.0024871312
0.86404377 -0.040677737 -0.00021369143
0.90392518 -0.039692711 0.0017846574
0.85879159 -0.0083801495 0.021639084
0.92346537 0.075168826 0.0030970934
0.84301001 -0.029655859 -0.00060445652
0.85815924 -0.024761371 0.0028239451
0.9087972 0.093077861 0.0013409925
0.93274194 0.010624519 0.0028777637
0.93302298 0.035584658 0.003402621
0.84796375 0.040436491 0.023162996
0.87863159 0.066191867 0.0085940966
0.91846335 -0.035096005 0.00029502535
0.8433286 0.064052738 0.0018681386
0.85213113 0.0098981336 0.023948634
0.8132425 0.039944049 -0.00074613083
0.85328531 9.479656e-05 0.022470387
0.90879071 -0.045466702 -0.00024661288
0.85762852 -0.015464495 0.00879905
0.85845232 -0.040284839 -0.00045692219
0.85854703 -0.044966508 -0.0012104809
0.9481684 0.0048921094 0.0024216282
0.85333282 -0.013989302 0.0077945767
0.84306079 0.048878055 0.0080010183
0.85319567 -0.0095581505 0.012217895
0.88847214 -0.024904713 0.0036183463
0.8525824 -0.015438231 0.0045286329
0.83839762 0.080724061 -0.0011808765
0.84822434 0.015411301 0.02390945
0.80764645 0.029657472 -0.0012030624
0.87709713 -0.036828686 -0.00092162297
0.80430001 0.039330829 -0.0029043637
0.82793969 -0.025171902 -0.0015167715
0.83796537 0.065308534 -0.00023812629
0.83245611 0.07503166 -0.0010682138
0.84844095 -0.034727454 -0.00090305234
0.83314407 0.0053343279 0.003317948
0.80916703 0.039902102 0.0016515261
0.81863976 0.050138772 -0.00082383014
0.83679819 0.030465057 0.0084494241
0.84345162 0.020517703 0.022828363
0.84404749 0.0060381335 0.017907782
0.83298445 0.070429727 -0.0005934246
0.83295816 0.055118166 -0.00017359915
0.88841081 0.066184737 0.0084638931
0.84432477 -0.015798276 0.00069559895
0.84301716 -0.020167938 -0.00036584615
0.84374094 -0.034766726 -0.0011052713
0.92405432 0.019864174 0.0079711648
0.93830776 0.0050877947 0.0020410731
0.82835412 0.065328464 -0.00048375895
0.83728606 0.0084617753 0.0041814419
0.94326627 -0.014449496 0.0018666796
0.82277864 0.070123568 -0.0015045528
0.83431715 0.025271853 0.0073017976
0.91842723 -0.034491513 0.0019249228
0.83312458 0.010118678 0.0033791726
0.90284234 -0.029433265 0.0019411505
0.83326757 -0.0056461398 0.00029352424
0.84907413 0.055420745 0.0077010193
0.85752124 -0.023913264 0.00032990825
0.80355465 0.019685518 -0.0026758462
0.81374705 0.025114458 -0.00074624474
0.8229059 0.04801359 0.0011824808
0.80777115 0.04548493 -0.0024989834
0.83882761 0.070057176 -0.00037273849
0.82283133 0.043004017 0.0007940607
0.83330166 -0.024725284 -0.00077706884
0.9438051 0.045436058 0.0028669792
0.82813531 -0.0051309117 -8.2976931e-06
0.81795567 0.047994044 0.0010244895
0.81339496 0.0099573201 -0.00087528676
0.83737415 0.020654622 0.012653022
0.90841353 -0.020785106 0.0032604029
0.81857896 0.035239037 -0.00064302061
0.82372653 0.0047681616 -0.00031938605
0.80390209 0.009961267 -0.0030175517
0.91798139 0.054983284 0.0047181598
0.84235835 0.041177884 0.013352314
0.83936703 0.0103694 0.012994127
0.81330341 0.054884978 -0.0015353691
0.81886989 0.019682815 -0.00025156251
0.85870397 0.050180621 0.023785818
0.9332279 0.020465018 0.0034746649
0.87832296 0.070175409 0.0044664023
0.89282542 0.075021632 0.0040776758
0.80833811 0.0051984908 -0.0023053586
0.81839973 0.0054164757 -0.0011820467
0.81851494 -7.7788616e-05 -0.00085851987
0.83809423 -0.0046050055 0.003869921
0.82883495 0.014954108 0.0024169961
0.90258855 -0.034893431 0.0015233709
0.873564 -0.035496294 0.00035033413
0.82799268 0.075881578 -0.0014855303
0.92867869 0.065685198 0.002677589
0.84452581 0.01064812 0.021741012
0.911946 -0.01258058 0.0062187212
0.84818113 0.041059498 0.020252274
0.86825901 0.070782058 0.003828258
0.88313311 -0.017560568 0.017490162
0.82324594 0.030502515 -0.00037806484
0.95344782 0.025335986 0.0019627162
0.93355572 0.015568639 0.0031750363
0.91324365 0.035458092 0.023959545
0.91309392 -0.0099095907 0.0043546334
0.90383136 0.085928261 0.0003269602
0.92860436 0.020715339 0.0044294475
0.85200828 -0.024870748 0.00010231864
0.85762089 -0.029190656 0.0023983207
0.87802196 -0.020609593 0.0088816918
0.90052915 -0.035066035 0.00031595226
0.87279266 -0.030566713 0.00063658186
0.91297638 -0.034790467 0.00054517062
0.91278815 -0.024915159 0.0016986983
0.91978329 0.031154064 0.014732666
0.84142256 0.00076920661 0.0049945917
0.88791364 -0.013551481 0.022939598
0.88296115 -0.014058411 0.022857549
0.86120856 0.04570866 0.023622936
0.91795188 -0.02988852 0.0018302215
0.83765328 0.01078886 0.0086158626
0.87275434 -0.0059975227 0.024771722
0.84249038 0.010670962 0.018494414
0.92302394 -0.00011533674 0.0041047768
0.92489386 -0.033635292 0.00038610064
0.92273283 -0.029434742 0.0021869226
0.83874005 0.015257231 0.013270289
0.91443533 0.080728173 0.00056582794
0.88275599 0.09487237 0.0010848973
0.90881598 -0.034026217 0.00037055273
0.90244001 0.089434698 0.0019623011
0.84350115 0.025497563 0.022960525
0.83975303 0.044899885 0.0069506648
0.86331117 0.064852655 0.0080960048
0.89763153 0.049733382 0.026658913
0.89345974 -0.044497427 0.001698883
0.91746163 0.010263065 0.018317994
0.94752926 -0.0087263444 0.00149194
0.86315095 0.059658475 0.018364061
0.87855875 -0.044870883 -4.9152179e-05
0.91797018 0.05032824 0.0048183473
0.92362815 -0.0245129 0.0025193286
0.91737121 0.082273193 0.00044150979
0.85803252 -0.00065410486 0.023741512
0.8412171 0.0100292 0.015383747
0.8838833 -0.03935891 0.0013987432
0.84072167 0.064649999 0.0016852942
0.86496139 -0.013477622 0.021358939
0.93855476 0.054813169 0.002828062
0.92002422 0.024290524 0.014501939
0.90825564 0.080185704 0.0025642668
0.91978568 0.01442937 0.014162243
0.90404177 -0.02445668 0.0031138076
0.8436715 -0.0046664975 0.0075331987
0.91753626 0.026633477 0.017544461
0.86758035 0.055944324 0.020723514
0.8489306 0.045509145 0.022344064
0.87066984 -0.025558455 0.00075895991
0.92730618 0.025544859 0.0061816094
0.82600021 0.02619276 0.0002851309
0.8279444 0.04591722 -0.000225197
0.86386353 -0.01391351 0.01779912
0.90303952 0.079778716 0.0019942576
0.89345074 -0.03604186 0.00056716584
0.89298666 -0.0099890698 0.023805562
0.87231541 -0.0158953 0.015768988
0.92183083 0.016028438 0.012466359
0.83814412 0.03025987 0.012287544
0.82284933 0.040982481 0.001063124
0.83859158 -0.0094131753 0.0032414491
0.92793781 0.035163101 0.0049000373
0.86305714 -0.0092772637 0.022257524
0.87729311 0.052172538 0.023558835
0.86290056 0.080321975 0.00029231899
0.93768632 0.060137119 0.0028516704
0.91773528 0.03525928 0.018357981
0.87385601 0.068968967 0.0068373866
0.90989709 0.051509835 0.013272957
0.92717767 -0.022704979 0.00072952901
0.91829592 0.0012541375 0.0081273997
0.82355034 0.044753183 -0.00060135149
0.91307759 0.089614935 0.0015029934
0.91811568 0.030248547 0.018135699
0.81755686 0.010674944 -0.00061408296
0.88818014 0.05943897 0.02289569
0.89406049 0.053901702 0.026156815
0.91508293 0.01096769 0.020157516
0.8431955 -0.0085115582 0.0064395168
0.94826508 0.020002063 0.0028888078
0.89323682 -0.02964073 0.0025761984
0.83749282 0.035499673 0.0085921455
0.88375235 0.055236831 0.026567884
0.93776119 0.011397672 0.00059893046
0.91312182 0.055043869 0.0063055791
0.82832223 0.070590347 -0.00065514457
0.90912437 0.025107147 0.026364492
0.859056 -0.023129353 0.0067615057
0.93333989 0.070023045 0.0026244679
0.91952366 0.0055538504 0.0090803104
0.92973596 0.029950432 0.0063370764
0.92347378 0.050074179 0.0043154582
0.93374825 0.064821213 0.0030436667
0.88344145 -0.030231738 0.00066427013
0.86795431 0.065353453 0.0077883108
0.87873435 0.090321928 0.0016650707
0.93270588 0.061821681 0.00078138616
0.8638097 -0.049560938 -0.0018167369
0.93353003 0.055488393 0.0026741766
0.89308912 0.084984846 0.00011995659
0.86797237 0.083833359 0.0011672627
0.83795863 0.025413316 0.013481332
0.91936851 0.046582878 0.00471453
0.86747879 0.080725454 5.3472701e-05
0.90864742 0.060605954 0.0051249457
0.84258527 -0.014299835 0.0037485231
0.94372702 0.039754193 0.0026576475
0.90456623 0.056087613 0.013828021
0.87283349 0.070497036 0.0044774208
0.92380518 0.040415466 0.0051506562
0.86827677 0.052844848 0.025807261
0.87310022 -0.013416885 0.022753319
0.90232188 0.048332088 0.02631543
0.9250108 0.030453149 0.0051192269
0.88814187 -0.023492053 0.0065311594
0.84241122 0.066473454 9.674307e-06
0.9294616 -0.031063097 0.00044018633
0.89434552 -0.00074040907 0.024684297
0.89812946 -0.00014305627 0.025166588
0.92616826 0.016394552 0.005974262
0.84525591 0.053817682 0.006369357
0.91425866 -0.00018715252 0.014270776
0.9156577 0.018905509 0.020582471
0.93704844 -0.017325463 0.00069785345
0.83202416 -0.0014883315 0.00049096067
0.923132 -0.01961619 0.00078197615
0.90808487 0.045244567 0.023693109
0.91406471 -0.035646092 0.0020432875
0.92779124 0.071009547 0.0032232739
0.62959415 0.0028192149 -0.091710567
0.83915573 -0.01488887 0.002259735
0.63155621 0.0014596152 -0.091522947
0.87925714 -0.048755459 0.0010364068
0.89318371 -0.04914435 0.00098495197
0.87812096 -0.043967392 0.0011819435
0.8891713 -0.04465628 0.0018093158
0.85279816 -0.020787714 -0.00023044458
0.88326621 -0.034820314 0.0017118322
0.87289888 -0.029991211 0.0028611908
0.87322807 0.055186614 0.023599988
0.86822826 -0.020148894 0.0087084249
0.90894061 -0.040087409 0.0017093817
0.91279644 -0.039824624 0.0020899731
0.8878659 -0.01022194 0.024082573
0.92853719 -0.02476258 0.0023132053
0.90857524 -0.0099482713 0.0086937444
0.83687627 0.040504258 0.004593248
0.88746297 -0.04960864 0.0010790313
0.87813693 -0.035069469 0.0017463954
0.91662443 0.039979205 0.018208766
0.84844029 -0.0043401225 0.012554787
0.90739292 -0.014044755 0.006963749
0.91824621 0.064799838 0.0028420861
0.88322145 0.065875992 0.0050505241
0.91951203 -0.00016465659 0.0043567037
0.92140013 0.031349506 0.013706093
0.84821337 -0.0071083219 0.0057139704
0.84436864 0.039094891 0.022564234
0.84836245 0.075411119 -0.0002532216
0.8596639 -0.044572182 0.00082599756
0.87350798 -0.018296935 0.013050128
0.94840634 0.035250254 0.0029834784
0.8412081 0.026639504 0.019111838
0.92821234 0.0062603122 0.0060576191
0.88898665 -0.016288854 0.013931992
0.89955503 -0.022749232 0.0058771549
0.8387019 0.040582124 0.0077162962
0.89889711 -0.020438677 0.0049550813
0.86795062 -0.029478069 0.0027866655
0.93007374 0.0087650623 0.0058839647
0.87784839 0.055640418 0.026312351
0.84362721 0.030532533 0.022995301
0.89844811 0.094617166 0.0016620195
0.81359035 0.035370328 -0.00074710342
0.91993314 0.035912339 0.013139056
0.89331454 0.090064101 0.0021694361
0.87867719 0.094493464 0.0012556928
0.84928203 0.0014304771 0.021430826
0.92342675 0.0011694161 0.0061546569
0.85814625 0.080110393 0.001184948
0.87800133 0.064252071 0.018247899
0.88249654 0.062935524 0.021345114
0.91419595 0.046686284 0.013877189
0.85225362 0.056759585 0.0082940338
0.85304433 0.071674757 -0.00051870017
0.92271799 0.0052922438 0.006629325
0.92219442 0.02606217 0.012930468
0.93575776 0.011196417 0.0005445017
0.8559233 0.051882979 0.020547235
0.83285463 0.051260263 2.1828186e-05
0.93148082 0.030195205 0.006367303
0.74352825 -0.14029701 -0.090786852
0.91314489 0.020153824 0.024464466
0.84487128 0.04920258 0.011573909
0.89335895 -0.04061253 0.0019142388
0.91068429 -0.026172206 0.0007473689
0.90891349 -0.02858685 0.00061958301
0.95214677 0.040235683 0.0015973172
0.86835366 -0.0349847 0.0016639787
0.82311761 0.060412135 -0.0012691233
0.86401075 -0.035293087 0.0020303947
0.9029305 -0.01887127 0.0062225624
0.91633868 -0.016711351 0.00023431354
0.9075675 0.089902379 0.0026621874
0.91774541 0.030051023 0.023587447
0.91387975 -0.015402256 0.00042960342
